-10.524 9.646 -31.952
-10.193 9.763 -32.320
-9.906 9.874 -32.703
-9.495 9.959 -32.967
-9.154 10.081 -33.309
-8.737 10.200 -33.620
-8.449 10.289 -34.024
-8.038 10.339 -34.279
-7.575 10.448 -34.527
-7.249 10.525 -34.816
-6.765 10.595 -35.066
-6.390 10.742 -35.415
-6.082 10.862 -35.695
-5.785 10.967 -35.863
-5.642 11.016 -35.928
-5.148 11.175 -36.127
-4.935 11.261 -36.233
-4.538 11.350 -36.315
-4.000 11.466 -36.361
-3.493 11.539 -36.373
-2.979 11.601 -36.389
-2.469 11.660 -36.386
-1.967 11.722 -36.382
-1.426 11.792 -36.410
-0.931 11.851 -36.389
19.830 11.749 -25.930
14.836 9.343 -19.988
15.451 9.337 -19.634
15.611 9.340 -19.562
16.137 9.347 -19.306
16.831 9.366 -19.019
17.528 9.374 -18.670
18.164 9.383 -18.368
18.659 9.335 -17.914
18.712 9.219 -17.440
18.657 9.116 -16.898
18.611 8.980 -16.409
15.675 7.199 -10.319
15.401 7.079 -9.944
15.091 6.984 -9.577
14.764 6.843 -9.200
14.414 6.752 -8.879
14.076 6.597 -8.531
13.698 6.475 -8.213
13.279 6.366 -7.926
12.926 6.233 -7.646
12.474 6.134 -7.404
12.040 5.985 -7.135
11.583 5.932 -6.974
11.127 5.772 -6.719
5.412 4.761 -5.381
4.902 4.697 -5.350
4.404 4.621 -5.295
3.900 4.557 -5.270
3.388 4.501 -5.297
2.901 4.430 -5.260
2.345 4.383 -5.319
1.852 4.315 -5.309
1.309 4.253 -5.332
1.110 4.234 -5.344
0.637 4.205 -5.423
0.218 4.162 -5.472
-0.357 4.098 -5.516
-0.834 4.077 -5.683
-1.347 4.013 -5.667
-1.826 3.973 -5.758
-2.313 3.936 -5.863
-2.796 3.914 -6.016
-3.288 3.885 -6.153
-3.740 3.863 -6.302
-4.226 3.839 -6.467
-4.695 3.825 -6.655
-5.154 3.797 -6.781
-5.617 3.776 -6.943
-6.070 3.771 -7.160
-6.552 3.762 -7.381
-6.990 3.760 -7.633
-7.437 3.757 -7.860
-7.861 3.789 -8.221
-8.148 3.800 -8.414
-8.565 3.814 -8.702
-9.015 3.825 -8.961
-9.467 3.832 -9.260
-9.794 3.861 -9.581
-10.172 3.884 -9.883
-10.513 3.930 -10.265
-10.881 3.965 -10.615
-11.227 4.009 -10.972
-11.556 4.064 -11.358
-11.911 4.102 -11.707
-12.225 4.151 -12.089
-12.513 4.220 -12.486
-12.782 4.273 -12.911
-13.057 4.335 -13.345
-13.298 4.401 -13.803
-13.426 4.453 -14.094
-13.633 4.542 -14.529
-13.834 4.629 -14.992
-14.004 4.712 -15.441
-12.521 8.105 -29.360
-12.289 8.245 -29.862
-12.020 8.382 -30.244
-11.801 8.518 -30.737
-11.571 8.626 -31.091
-11.278 8.762 -31.575
-11.021 8.890 -31.996
-10.688 9.016 -32.333
-10.367 9.140 -32.698
-10.088 9.265 -33.114
-9.763 9.386 -33.477
-9.337 9.482 -33.762
-8.985 9.606 -34.074
-8.696 9.720 -34.464
-8.333 9.844 -34.782
-7.960 9.906 -34.984
-7.459 10.011 -35.291
-7.087 10.142 -35.627
-6.756 10.230 -35.950
-6.384 10.393 -36.235
-5.911 10.521 -36.387
-5.412 10.598 -36.382
-4.912 10.683 -36.419
-4.422 10.757 -36.479
-3.898 10.812 -36.471
-3.397 10.882 -36.502
-2.882 10.941 -36.490
-2.369 11.003 -36.478
-1.854 11.063 -36.458
-1.334 11.122 -36.428
-0.832 11.183 -36.412
-0.308 11.245 -36.396
20.851 10.986 -25.808
20.206 11.002 -25.671
19.432 10.967 -25.030
14.162 10.040 -23.395
13.608 9.951 -23.290
12.892 9.960 -23.572
16.116 8.692 -19.464
16.559 8.684 -19.187
16.760 8.685 -19.083
17.450 8.706 -18.802
18.053 8.723 -18.547
18.743 8.702 -18.083
19.246 8.670 -17.689
19.237 8.541 -17.200
19.053 8.417 -16.596
18.899 8.236 -15.964
18.803 8.113 -15.567
18.673 8.004 -15.088
17.038 6.965 -11.526
16.939 6.926 -11.381
16.611 6.819 -11.034
16.387 6.707 -10.675
16.034 6.568 -10.219
15.784 6.442 -9.816
15.421 6.318 -9.479
15.076 6.198 -9.093
14.789 6.064 -8.716
14.476 5.900 -8.380
14.015 5.822 -8.117
13.640 5.692 -7.813
13.243 5.570 -7.536
12.829 5.460 -7.286
12.349 5.353 -7.052
11.861 5.245 -6.823
11.303 5.094 -6.558
10.854 4.995 -6.376
6.051 4.149 -5.291
5.561 4.083 -5.249
5.082 3.996 -5.200
4.556 3.940 -5.185
4.044 3.873 -5.177
3.550 3.806 -5.175
3.032 3.739 -5.177
2.539 3.680 -5.183
1.982 3.634 -5.243
1.442 3.575 -5.278
0.936 3.510 -5.260
0.630 3.476 -5.276
0.151 3.438 -5.348
-0.330 3.398 -5.439
-0.822 3.362 -5.549
-1.348 3.295 -5.551
-1.818 3.257 -5.638
-2.312 3.224 -5.756
-2.783 3.201 -5.905
-3.260 3.170 -6.035
-3.740 3.148 -6.194
-4.207 3.126 -6.345
-4.681 3.109 -6.529
-5.150 3.082 -6.672
-5.597 3.098 -6.974
-6.056 3.076 -7.133
-6.539 3.060 -7.317
-6.998 3.040 -7.482
-7.445 3.047 -7.768
-7.872 3.075 -8.115
-8.293 3.075 -8.345
-8.631 3.120 -8.708
-9.165 3.098 -8.911
-9.521 3.129 -9.235
-9.925 3.144 -9.525
-10.261 3.187 -9.883
-10.649 3.219 -10.216
-11.036 3.249 -10.546
-11.362 3.291 -10.909
-11.671 3.341 -11.285
-12.009 3.377 -11.655
-12.310 3.451 -12.089
-12.653 3.495 -12.426
-12.914 3.562 -12.876
-13.171 3.625 -13.307
-13.435 3.706 -13.766
-13.650 3.760 -14.158
-13.832 3.853 -14.613
-14.022 3.936 -15.075
-14.213 4.011 -15.538
-13.075 7.244 -28.966
-12.819 7.381 -29.402
-12.647 7.480 -29.750
-12.418 7.619 -30.210
-12.152 7.757 -30.624
-11.940 7.887 -31.113
-11.700 8.014 -31.534
-11.402 8.146 -31.943
-11.103 8.270 -32.320
-10.834 8.394 -32.710
-10.503 8.515 -33.066
-10.209 8.642 -33.461
-9.945 8.768 -33.886
-9.557 8.865 -34.166
-9.162 8.990 -34.467
-8.883 9.111 -34.855
-8.422 9.233 -35.110
-8.061 9.348 -35.422
-7.612 9.476 -35.744
-7.404 9.603 -36.141
-7.304 9.641 -36.246
-6.959 9.713 -36.368
-6.808 9.740 -36.403
-6.337 9.825 -36.497
-5.828 9.894 -36.502
-5.332 9.963 -36.527
-4.811 10.026 -36.524
-4.310 10.088 -36.524
-3.798 10.150 -36.520
-3.287 10.205 -36.486
-2.745 10.257 -36.446
-2.240 10.323 -36.444
-1.870 10.360 -36.412
-1.365 10.420 -36.387
-0.860 10.472 -36.350
-0.345 10.525 -36.308
16.821 12.192 -34.214
17.217 12.168 -33.897
17.669 12.187 -33.647
21.818 10.778 -25.950
21.680 10.575 -25.738
21.244 10.576 -25.622
20.685 10.409 -25.380
20.033 9.767 -23.935
19.833 9.944 -23.784
14.279 9.397 -23.507
13.729 9.300 -23.383
12.989 9.221 -23.414
16.574 8.019 -19.283
17.025 8.016 -19.029
17.439 8.039 -19.023
18.121 8.057 -18.610
18.525 8.058 -18.399
18.818 8.058 -18.241
19.371 8.043 -17.867
19.812 7.989 -17.462
19.558 7.838 -16.884
19.494 7.710 -16.344
19.283 7.542 -15.714
19.136 7.420 -15.236
18.860 7.269 -14.680
18.745 7.124 -14.224
18.577 7.000 -13.783
17.940 6.628 -12.416
17.707 6.492 -12.009
17.457 6.345 -11.605
17.086 6.213 -11.158
16.944 6.124 -10.897
16.661 6.000 -10.514
16.511 5.936 -10.317
16.377 5.874 -10.130
16.075 5.754 -9.738
15.802 5.619 -9.320
15.484 5.491 -8.957
15.130 5.381 -8.619
14.747 5.266 -8.317
14.403 5.144 -8.011
13.988 5.032 -7.730
13.524 4.920 -7.488
13.132 4.794 -7.220
12.834 4.714 -7.025
12.698 4.689 -6.955
12.202 4.579 -6.740
11.704 4.472 -6.533
11.452 4.395 -6.405
11.025 4.323 -6.260
10.556 4.217 -6.093
7.201 3.614 -5.330
6.707 3.529 -5.251
6.231 3.454 -5.187
5.704 3.384 -5.135
5.249 3.309 -5.076
4.695 3.257 -5.096
4.195 3.183 -5.067
3.670 3.128 -5.090
3.209 3.040 -5.007
2.684 2.989 -5.044
2.128 2.934 -5.109
1.604 2.887 -5.181
1.110 2.814 -5.133
0.591 2.764 -5.177
0.178 2.738 -5.284
-0.323 2.683 -5.322
-0.811 2.645 -5.417
-1.290 2.611 -5.532
-1.775 2.578 -5.646
-2.282 2.533 -5.729
-2.767 2.492 -5.814
-3.226 2.467 -5.952
-3.713 2.438 -6.091
-4.189 2.419 -6.248
-4.650 2.399 -6.422
-5.127 2.375 -6.579
-5.597 2.372 -6.821
-6.064 2.357 -6.996
-6.533 2.337 -7.164
-6.965 2.340 -7.422
-7.410 2.361 -7.743
-7.972 2.358 -8.042
-8.382 2.372 -8.333
-8.755 2.403 -8.662
-9.162 2.417 -8.929
-9.635 2.409 -9.157
-10.013 2.442 -9.507
-10.401 2.470 -9.835
-10.749 2.509 -10.184
-11.087 2.550 -10.534
-11.416 2.595 -10.910
-11.830 2.612 -11.206
-12.153 2.663 -11.584
-12.438 2.731 -12.010
-12.748 2.788 -12.387
-13.058 2.835 -12.804
-13.279 2.939 -13.311
-13.565 2.976 -13.695
-13.813 3.074 -14.241
-13.985 3.165 -14.698
-14.247 3.217 -15.166
-14.405 3.308 -15.616
-14.587 3.379 -16.083
-14.729 3.467 -16.541
-13.790 6.207 -27.836
-13.623 6.324 -28.300
-13.431 6.451 -28.703
-13.224 6.589 -29.154
-12.990 6.723 -29.600
-12.783 6.854 -30.082
-12.556 6.994 -30.577
-12.289 7.127 -30.974
-12.025 7.259 -31.403
-11.773 7.387 -31.837
-11.508 7.517 -32.255
-11.198 7.646 -32.646
-10.987 7.774 -33.105
-10.669 7.906 -33.505
-10.367 8.030 -33.881
-10.046 8.144 -34.214
-9.727 8.270 -34.598
-9.418 8.395 -34.977
-9.089 8.511 -35.294
-8.666 8.626 -35.569
-8.255 8.747 -35.863
-7.850 8.856 -36.106
-7.499 8.968 -36.400
-7.228 9.026 -36.506
-6.736 9.100 -36.557
-6.240 9.174 -36.600
-5.725 9.243 -36.607
-5.226 9.300 -36.582
-4.707 9.359 -36.566
-4.207 9.422 -36.559
-3.680 9.475 -36.518
-3.168 9.535 -36.485
-2.611 9.583 -36.414
-2.353 9.611 -36.394
-1.839 9.661 -36.332
-1.067 9.751 -36.309
-0.426 9.817 -36.254
0.209 9.903 -36.237
16.468 11.753 -35.581
16.620 11.756 -35.551
17.210 11.762 -35.323
17.594 11.660 -35.050
17.792 11.661 -34.566
18.169 11.642 -34.246
18.457 11.649 -33.808
18.893 11.673 -33.530
19.213 11.683 -33.176
22.750 10.762 -27.292
22.831 10.687 -26.952
22.828 10.549 -26.373
22.631 10.490 -26.241
22.492 10.143 -25.888
20.842 9.852 -24.720
20.997 9.759 -24.492
20.863 9.305 -23.856
20.647 9.390 -23.682
20.074 9.339 -23.670
14.468 8.770 -23.675
13.748 8.693 -23.714
13.144 8.593 -23.622
1.475 5.867 -21.157
2.118 6.043 -21.273
16.541 11.126 -35.725
17.064 11.185 -35.707
17.557 11.220 -35.613
18.004 11.274 -35.576
18.554 11.284 -35.385
18.769 11.198 -34.892
19.005 11.141 -34.419
19.350 11.134 -34.104
19.842 11.075 -33.845
20.181 11.048 -33.514
20.456 11.047 -33.061
20.796 11.029 -32.710
23.396 10.232 -28.130
23.554 10.122 -27.672
23.737 9.967 -27.257
23.499 9.995 -26.681
23.662 9.759 -26.128
23.200 9.584 -25.834
21.812 9.344 -25.295
21.773 9.170 -24.374
21.755 9.052 -24.119
21.098 8.793 -23.710
20.983 8.805 -23.668
-2.522 6.105 -24.296
-2.073 5.826 -23.800
17.046 7.352 -19.122
17.624 7.387 -19.128
18.159 7.389 -18.835
18.719 7.385 -18.362
19.402 7.399 -18.077
19.898 7.352 -17.587
20.021 7.255 -17.131
19.929 7.125 -16.603
19.687 6.967 -15.977
19.590 6.829 -15.467
19.403 6.668 -14.866
19.352 6.630 -14.746
19.101 6.506 -14.297
18.936 6.368 -13.849
18.716 6.246 -13.394
18.575 6.128 -12.957
18.308 5.993 -12.508
18.051 5.853 -12.070
17.758 5.716 -11.656
17.475 5.590 -11.212
17.162 5.452 -10.804
16.998 5.326 -10.409
16.708 5.208 -10.022
16.396 5.084 -9.645
16.085 4.954 -9.263
15.754 4.834 -8.914
15.402 4.716 -8.585
15.008 4.604 -8.286
14.698 4.470 -7.943
14.258 4.375 -7.706
13.837 4.259 -7.416
13.446 4.127 -7.149
12.938 4.021 -6.914
12.466 3.922 -6.697
12.052 3.804 -6.465
11.633 3.715 -6.308
11.164 3.640 -6.169
10.688 3.539 -5.987
10.238 3.435 -5.822
9.758 3.351 -5.704
8.333 3.069 -5.371
7.832 2.994 -5.278
7.350 2.923 -5.220
6.874 2.846 -5.162
6.364 2.764 -5.109
5.859 2.699 -5.078
5.371 2.628 -5.040
4.813 2.581 -5.076
4.346 2.504 -5.024
3.855 2.434 -5.005
3.314 2.376 -5.016
2.807 2.308 -5.001
2.296 2.245 -5.024
1.716 2.194 -5.102
1.232 2.130 -5.084
0.744 2.080 -5.127
0.172 2.030 -5.206
-0.300 1.981 -5.255
-0.777 1.951 -5.382
-1.280 1.902 -5.431
-1.751 1.879 -5.578
-2.243 1.832 -5.646
-2.736 1.794 -5.750
-3.203 1.775 -5.915
-3.682 1.750 -6.074
-4.164 1.719 -6.198
-4.623 1.702 -6.372
-5.107 1.689 -6.575
-5.574 1.658 -6.699
-6.031 1.658 -6.945
-6.498 1.646 -7.145
-6.951 1.642 -7.366
-7.406 1.652 -7.646
-7.608 1.655 -7.772
-8.016 1.668 -8.057
-8.456 1.677 -8.340
-8.890 1.686 -8.604
-9.259 1.711 -8.914
-9.681 1.725 -9.201
-10.094 1.744 -9.499
-10.494 1.763 -9.797
-10.850 1.798 -10.150
-11.204 1.837 -10.499
-11.525 1.888 -10.889
-11.865 1.928 -11.247
-12.196 1.965 -11.605
-12.507 2.029 -12.023
-12.821 2.092 -12.418
-13.100 2.153 -12.835
-13.367 2.215 -13.267
-13.632 2.282 -13.713
-13.861 2.361 -14.175
-13.934 2.388 -14.341
-14.152 2.463 -14.775
-14.365 2.541 -15.240
-14.551 2.617 -15.708
-14.721 2.706 -16.171
-14.868 2.792 -16.635
-14.956 2.908 -17.129
-14.282 5.291 -27.124
-14.077 5.439 -27.582
-13.888 5.561 -28.037
-13.753 5.677 -28.510
-13.598 5.807 -28.966
-13.305 5.956 -29.443
-13.094 6.095 -29.914
-12.885 6.231 -30.417
-12.625 6.364 -30.849
-12.401 6.498 -31.295
-12.141 6.635 -31.762
-11.862 6.761 -32.161
-11.622 6.893 -32.614
-11.307 7.011 -32.956
-11.084 7.147 -33.433
-10.776 7.271 -33.801
-10.491 7.400 -34.201
-10.126 7.517 -34.510
-9.968 7.596 -34.775
-9.895 7.654 -34.981
-9.553 7.768 -35.310
-9.178 7.888 -35.622
-8.770 7.999 -35.881
-8.357 8.116 -36.159
-7.988 8.228 -36.437
-7.617 8.297 -36.538
-7.135 8.373 -36.607
-6.647 8.446 -36.651
-6.142 8.511 -36.646
-5.630 8.576 -36.644
-5.115 8.639 -36.653
-4.596 8.693 -36.607
-4.323 8.725 -36.598
-3.836 8.770 -36.531
-3.336 8.824 -36.485
-2.833 8.872 -36.439
-2.312 8.925 -36.380
-1.745 8.981 -36.324
-1.185 9.019 -36.212
-0.569 9.087 -36.148
0.318 9.250 -36.251
-0.571 8.493 -33.158
-0.522 8.289 -32.664
-0.483 8.178 -32.168
-3.073 5.400 -24.520
-2.600 5.224 -24.160
-2.569 5.160 -23.552
-2.294 5.034 -23.153
-2.014 5.096 -22.757
-0.903 5.013 -21.668
-0.417 5.047 -21.552
0.046 5.063 -21.369
0.546 5.113 -21.313
1.031 5.146 -21.198
1.555 5.231 -21.141
2.112 5.326 -21.175
17.596 6.705 -19.132
17.991 6.701 -18.772
18.635 6.707 -18.450
19.424 6.742 -18.222
19.990 6.719 -17.772
20.415 6.674 -17.363
20.276 6.531 -16.827
20.158 6.397 -16.287
20.021 6.248 -15.726
19.733 6.070 -15.096
19.651 6.006 -14.856
19.471 5.876 -14.367
19.280 5.750 -13.919
19.070 5.628 -13.465
18.890 5.489 -13.031
18.609 5.355 -12.605
18.395 5.226 -12.159
18.140 5.100 -11.722
17.901 4.974 -11.300
17.512 4.827 -10.858
17.276 4.697 -10.452
16.912 4.550 -10.044
16.613 4.418 -9.641
16.349 4.292 -9.242
16.013 4.168 -8.887
15.706 4.048 -8.531
15.297 3.938 -8.248
14.902 3.818 -7.946
14.534 3.698 -7.637
14.142 3.582 -7.364
13.694 3.476 -7.127
13.175 3.373 -6.899
12.752 3.255 -6.651
12.342 3.139 -6.426
11.788 3.042 -6.237
11.346 2.921 -6.031
10.862 2.828 -5.874
10.383 2.753 -5.745
9.897 2.659 -5.617
9.441 2.559 -5.493
8.965 2.475 -5.390
8.469 2.400 -5.317
7.968 2.333 -5.259
7.488 2.235 -5.154
7.005 2.155 -5.078
6.513 2.090 -5.036
6.008 2.020 -5.001
5.504 1.950 -4.987
4.978 1.888 -4.997
4.478 1.820 -4.985
3.965 1.753 -4.976
3.450 1.690 -4.974
2.953 1.630 -4.980
2.416 1.575 -5.011
1.912 1.512 -5.016
1.382 1.457 -5.055
0.836 1.409 -5.125
0.296 1.358 -5.197
-0.246 1.306 -5.270
-0.742 1.265 -5.363
-1.246 1.221 -5.441
-1.730 1.179 -5.516
-2.209 1.148 -5.640
-2.678 1.120 -5.774
-3.144 1.099 -5.938
-3.665 1.047 -5.994
-4.127 1.028 -6.155
-4.594 1.013 -6.337
-5.067 0.997 -6.529
-5.534 0.983 -6.723
-5.991 0.972 -6.926
-6.446 0.966 -7.143
-6.727 0.966 -7.296
-7.218 0.957 -7.524
-7.648 0.966 -7.799
-8.080 0.977 -8.080
-8.496 0.988 -8.355
-8.925 1.001 -8.642
-9.359 1.012 -8.917
-9.744 1.034 -9.221
-10.115 1.062 -9.541
-10.518 1.084 -9.852
-10.894 1.109 -10.172
-11.218 1.162 -10.561
-11.580 1.196 -10.894
-11.915 1.244 -11.285
-12.260 1.275 -11.609
-12.546 1.338 -12.040
-12.853 1.396 -12.446
-13.141 1.451 -12.849
-13.437 1.508 -13.251
-13.685 1.604 -13.745
-13.814 1.643 -13.988
-14.038 1.719 -14.442
-14.286 1.781 -14.905
-14.453 1.861 -15.352
-14.624 1.949 -15.814
-14.821 2.032 -16.262
-14.915 2.145 -16.764
-14.388 4.643 -27.324
-14.214 4.772 -27.775
-14.039 4.898 -28.248
-13.853 5.032 -28.703
-13.670 5.156 -29.146
-13.419 5.303 -29.611
-13.179 5.470 -30.257
-12.924 5.597 -30.660
-12.674 5.735 -31.129
-12.438 5.872 -31.587
-12.196 6.008 -32.065
-11.932 6.130 -32.453
-11.667 6.256 -32.862
-11.382 6.395 -33.307
-11.134 6.519 -33.716
-10.835 6.639 -34.072
-10.559 6.754 -34.423
-10.239 6.897 -34.871
-9.959 7.025 -35.273
-9.645 7.143 -35.611
-9.269 7.261 -35.925
-8.919 7.371 -36.217
-8.499 7.486 -36.479
-8.027 7.573 -36.600
-7.536 7.643 -36.637
-7.046 7.720 -36.699
-6.529 7.782 -36.685
-6.033 7.849 -36.704
-5.522 7.907 -36.683
-5.009 7.974 -36.701
-4.774 8.004 -36.695
-4.290 8.050 -36.628
-3.790 8.096 -36.552
-3.286 8.143 -36.485
-3.156 8.156 -36.469
-2.490 8.224 -36.419
-1.842 8.275 -36.309
-1.316 8.289 -36.067
-0.780 8.325 -35.973
-0.218 8.274 -36.129
-1.269 8.143 -35.291
-0.901 8.030 -34.724
-1.045 7.885 -34.180
-1.004 7.774 -33.684
-1.228 7.617 -33.119
-0.755 7.586 -32.733
-1.044 7.416 -32.152
16.610 10.460 -35.758
17.129 10.520 -35.746
17.629 10.576 -35.730
18.124 10.633 -35.718
18.619 10.679 -35.654
19.232 10.700 -35.447
19.590 10.660 -35.098
19.988 10.639 -34.777
20.221 10.567 -34.295
20.654 10.553 -34.017
20.983 10.515 -33.649
21.274 10.464 -33.236
21.578 10.418 -32.855
21.855 10.373 -32.441
23.810 9.746 -28.877
23.917 9.695 -28.372
24.048 9.587 -27.922
24.203 9.463 -27.491
24.227 9.363 -26.971
24.255 9.302 -26.621
24.140 9.162 -26.156
23.669 8.991 -25.865
22.482 8.766 -25.423
22.593 8.693 -25.026
22.593 8.620 -24.677
22.252 8.568 -24.297
21.341 8.085 -23.570
21.222 8.128 -23.570
20.503 8.054 -23.550
-2.887 4.385 -23.646
-2.857 4.410 -23.366
-2.681 4.335 -22.755
-2.223 4.313 -22.337
-1.857 4.323 -21.942
-1.469 4.284 -21.800
-1.198 4.433 -20.972
-0.390 4.346 -21.492
0.073 4.364 -21.307
0.568 4.408 -21.229
1.045 4.433 -21.085
1.561 4.509 -21.054
2.063 4.559 -20.999
2.627 4.687 -21.107
3.137 4.747 -21.186
3.623 4.778 -21.095
16.372 9.754 -35.748
16.890 9.823 -35.792
17.179 9.855 -35.797
17.694 9.917 -35.780
18.202 9.972 -35.778
18.689 10.022 -35.748
19.189 10.073 -35.707
19.697 10.125 -35.654
20.108 10.137 -35.516
20.529 10.099 -35.131
20.739 10.068 -34.903
21.041 10.022 -34.494
21.351 9.971 -34.095
21.601 9.901 -33.592
22.024 9.875 -33.321
22.275 9.827 -32.889
22.580 9.761 -32.494
22.864 9.693 -32.078
24.080 9.279 -29.598
24.257 9.180 -29.115
24.403 9.103 -28.656
24.489 9.035 -28.164
24.699 8.861 -27.667
24.722 8.808 -27.163
24.707 8.692 -26.670
24.769 8.534 -26.143
24.459 8.402 -25.856
23.035 8.166 -25.415
23.127 8.124 -25.140
22.988 7.973 -24.610
22.898 7.809 -24.128
22.296 7.478 -23.739
22.143 7.534 -23.646
21.880 7.519 -23.562
21.362 7.472 -23.523
20.798 7.406 -23.515
18.083 6.000 -19.012
18.518 6.023 -18.532
19.328 6.062 -18.265
19.494 6.064 -18.184
19.958 6.062 -17.928
20.454 6.023 -17.494
20.641 5.934 -17.029
20.522 5.809 -16.557
20.354 5.650 -15.930
20.167 5.499 -15.366
19.873 5.326 -14.759
19.719 5.243 -14.461
19.562 5.123 -14.038
19.355 4.984 -13.574
19.166 4.860 -13.119
18.943 4.730 -12.676
18.656 4.598 -12.253
18.442 4.470 -11.810
18.166 4.337 -11.373
17.816 4.195 -10.959
17.723 4.157 -10.831
17.451 4.023 -10.427
17.147 3.892 -10.045
16.870 3.753 -9.611
16.565 3.632 -9.256
16.202 3.519 -8.941
15.900 3.391 -8.559
15.523 3.276 -8.253
15.141 3.162 -7.953
14.736 3.042 -7.662
14.321 2.927 -7.381
13.903 2.819 -7.129
13.461 2.715 -6.878
12.977 2.594 -6.647
12.536 2.485 -6.430
12.062 2.377 -6.221
11.923 2.349 -6.169
11.532 2.269 -6.035
11.021 2.155 -5.849
10.522 2.058 -5.688
10.048 1.973 -5.584
9.557 1.889 -5.483
9.089 1.809 -5.384
8.600 1.732 -5.301
8.107 1.646 -5.218
7.633 1.561 -5.121
7.122 1.494 -5.100
6.626 1.422 -5.049
6.130 1.351 -5.009
5.617 1.283 -4.982
5.131 1.209 -4.927
4.621 1.142 -4.925
4.127 1.077 -4.906
3.596 1.016 -4.933
3.073 0.957 -4.968
2.536 0.903 -5.011
2.029 0.842 -5.018
1.778 0.812 -5.026
1.265 0.760 -5.080
0.775 0.714 -5.136
0.289 0.669 -5.202
-0.186 0.633 -5.311
-0.716 0.569 -5.322
-1.202 0.536 -5.429
-1.690 0.498 -5.530
-2.161 0.464 -5.640
-2.644 0.430 -5.756
-3.139 0.391 -5.861
-3.615 0.358 -5.971
-4.091 0.342 -6.153
-4.548 0.330 -6.345
-5.014 0.307 -6.500
-5.470 0.300 -6.717
-5.942 0.288 -6.916
-6.411 0.280 -7.135
-6.796 0.272 -7.309
-7.209 0.284 -7.586
-7.689 0.277 -7.823
-8.084 0.297 -8.119
-8.502 0.312 -8.414
-8.930 0.326 -8.697
-9.366 0.342 -9.000
-9.793 0.349 -9.260
-10.183 0.368 -9.558
-10.542 0.400 -9.889
-10.921 0.429 -10.211
-11.314 0.453 -10.526
-11.610 0.513 -10.937
-11.988 0.544 -11.273
-12.318 0.587 -11.638
-12.608 0.645 -12.048
-12.883 0.707 -12.467
-13.172 0.765 -12.876
-13.438 0.837 -13.322
-13.721 0.903 -13.751
-13.931 0.959 -14.109
-14.155 1.033 -14.556
-14.332 1.121 -15.008
-14.560 1.195 -15.475
-14.727 1.274 -15.915
-14.859 1.369 -16.380
-15.008 1.468 -16.865
-15.155 1.546 -17.322
-15.058 3.478 -25.681
-14.744 3.753 -26.604
-14.671 3.860 -27.096
-14.500 3.984 -27.538
-14.310 4.116 -27.992
-14.131 4.242 -28.440
-13.931 4.377 -28.901
-13.756 4.499 -29.346
-13.660 4.569 -29.605
-13.581 4.621 -29.780
-13.357 4.753 -30.218
-13.203 4.838 -30.525
-13.009 4.976 -31.023
-12.763 5.109 -31.463
-12.496 5.235 -31.858
-12.272 5.369 -32.326
-11.993 5.501 -32.742
-11.718 5.626 -33.144
-11.466 5.752 -33.553
-11.211 5.886 -33.998
-10.947 6.016 -34.418
-10.595 6.138 -34.756
-10.294 6.264 -35.140
-10.006 6.386 -35.514
-9.655 6.510 -35.858
-9.340 6.630 -36.196
-8.902 6.759 -36.524
-8.430 6.850 -36.662
-7.927 6.920 -36.697
-7.457 6.992 -36.752
-6.936 7.058 -36.750
-6.426 7.122 -36.759
-5.925 7.184 -36.738
-5.756 7.203 -36.726
-5.247 7.263 -36.720
-4.732 7.319 -36.692
-4.238 7.371 -36.642
-3.749 7.412 -36.552
-3.202 7.459 -36.490
-2.524 7.519 -36.416
-1.908 7.553 -36.290
-1.346 7.598 -36.077
-0.773 7.625 -35.886
-1.295 7.863 -35.516
-1.518 7.230 -34.579
-1.503 7.131 -34.145
-1.523 7.025 -33.693
-1.301 6.955 -33.277
-1.313 6.825 -32.717
-1.811 6.618 -32.088
-1.983 6.442 -31.426
-2.112 6.343 -31.058
-3.304 3.835 -24.013
-3.287 3.773 -23.698
-3.225 3.684 -23.104
-2.802 3.693 -22.835
-2.642 3.544 -22.172
-2.235 3.550 -21.869
-1.845 3.572 -21.674
-1.338 3.578 -21.658
-0.858 3.603 -21.508
-0.390 3.621 -21.324
0.090 3.653 -21.208
0.591 3.704 -21.152
1.107 3.770 -21.157
1.614 3.828 -21.137
2.092 3.856 -20.994
2.585 3.898 -20.914
3.134 4.004 -20.959
3.652 4.073 -21.037
4.149 4.112 -20.983
-3.283 5.280 -30.074
-3.162 5.162 -29.492
-3.194 4.987 -28.756
-3.357 4.767 -27.889
18.439 5.317 -18.498
19.014 5.373 -18.440
19.263 5.386 -18.369
19.948 5.392 -18.037
20.385 5.381 -17.720
20.720 5.336 -17.353
20.839 5.315 -17.201
20.820 5.202 -16.744
20.609 5.038 -16.132
20.424 4.887 -15.548
20.192 4.714 -14.941
20.035 4.619 -14.574
19.842 4.494 -14.123
19.631 4.358 -13.663
19.421 4.230 -13.220
19.160 4.098 -12.783
18.936 3.967 -12.361
18.710 3.835 -11.927
18.414 3.700 -11.501
18.092 3.560 -11.071
17.944 3.487 -10.830
17.659 3.361 -10.443
17.343 3.242 -10.094
17.082 3.103 -9.655
16.784 2.978 -9.275
16.424 2.859 -8.946
16.093 2.733 -8.586
15.730 2.617 -8.282
15.359 2.502 -7.981
14.963 2.386 -7.675
14.530 2.278 -7.410
14.119 2.158 -7.141
13.687 2.045 -6.887
13.237 1.936 -6.653
12.733 1.824 -6.438
12.287 1.718 -6.231
11.723 1.609 -6.047
11.226 1.507 -5.878
10.649 1.385 -5.690
10.172 1.294 -5.568
9.693 1.214 -5.479
9.212 1.133 -5.382
8.725 1.060 -5.319
8.231 0.985 -5.241
7.730 0.901 -5.169
7.244 0.824 -5.119
6.750 0.755 -5.067
6.248 0.685 -5.038
5.748 0.614 -5.001
5.239 0.548 -4.985
4.724 0.480 -4.985
4.217 0.411 -4.947
3.723 0.345 -4.931
3.340 0.303 -4.962
2.838 0.246 -4.978
2.674 0.226 -4.982
2.328 0.190 -5.005
1.824 0.136 -5.051
1.337 0.092 -5.125
0.822 0.037 -5.160
0.325 -0.009 -5.204
-0.163 -0.054 -5.272
-0.653 -0.096 -5.355
-1.138 -0.130 -5.464
-1.636 -0.172 -5.553
-2.108 -0.199 -5.685
-2.611 -0.243 -5.762
-3.079 -0.270 -5.903
-3.569 -0.302 -6.031
-4.027 -0.322 -6.194
-4.497 -0.338 -6.380
-4.978 -0.365 -6.521
-5.437 -0.379 -6.709
-5.905 -0.388 -6.922
-6.355 -0.390 -7.160
-6.785 -0.392 -7.379
-7.269 -0.395 -7.627
-7.674 -0.381 -7.910
-8.121 -0.375 -8.177
-8.547 -0.368 -8.440
-8.944 -0.345 -8.747
-9.397 -0.341 -9.019
-9.804 -0.325 -9.308
-10.178 -0.297 -9.619
-10.551 -0.266 -9.956
-10.941 -0.241 -10.276
-11.266 -0.195 -10.648
-11.609 -0.157 -11.002
-11.973 -0.125 -11.335
-12.287 -0.074 -11.725
-12.577 -0.015 -12.130
-12.883 0.035 -12.543
-13.186 0.094 -12.949
-13.465 0.157 -13.377
-13.745 0.220 -13.797
-13.953 0.288 -14.219
-14.154 0.369 -14.669
-14.394 0.444 -15.127
-14.543 0.536 -15.584
-14.742 0.615 -16.045
-14.921 0.699 -16.518
-15.057 0.791 -16.973
-15.193 0.877 -17.441
-15.309 0.974 -17.916
-15.128 2.834 -25.880
-14.988 2.963 -26.339
-14.876 3.084 -26.802
-14.736 3.203 -27.270
-14.558 3.336 -27.721
-14.429 3.453 -28.191
-14.225 3.586 -28.635
-14.022 3.715 -29.086
-13.842 3.841 -29.535
-13.636 3.973 -29.985
-13.450 4.100 -30.435
-13.197 4.234 -30.876
-13.012 4.341 -31.250
-12.818 4.474 -31.723
-12.552 4.602 -32.127
-12.314 4.739 -32.611
-12.020 4.861 -32.974
-11.777 4.995 -33.427
-11.549 5.131 -33.893
-11.227 5.253 -34.242
-10.989 5.348 -34.524
-10.634 5.510 -35.036
-10.359 5.636 -35.436
-10.054 5.756 -35.794
-9.751 5.886 -36.189
-9.286 6.025 -36.536
-8.821 6.113 -36.664
-8.337 6.190 -36.736
-7.857 6.262 -36.786
-7.337 6.324 -36.770
-6.819 6.386 -36.752
-6.312 6.450 -36.743
-5.719 6.529 -36.770
-5.206 6.581 -36.756
-4.685 6.641 -36.729
-4.162 6.694 -36.665
-3.789 6.727 -36.614
-3.218 6.771 -36.506
-2.614 6.808 -36.352
-2.055 6.769 -36.024
-1.818 6.777 -35.764
-1.899 6.626 -35.151
-2.043 6.390 -34.207
-2.116 6.219 -33.507
-1.538 6.217 -33.183
17.532 9.208 -35.743
17.752 9.238 -35.744
18.256 9.298 -35.757
18.758 9.359 -35.778
19.274 9.418 -35.787
19.773 9.472 -35.771
20.262 9.513 -35.684
20.733 9.546 -35.595
21.196 9.558 -35.397
21.407 9.483 -34.963
21.696 9.432 -34.563
21.972 9.362 -34.097
22.391 9.343 -33.796
22.645 9.273 -33.323
22.926 9.213 -32.885
23.223 9.158 -32.480
23.430 9.091 -32.083
23.729 9.019 -31.599
23.924 8.941 -31.182
24.079 8.876 -30.719
24.307 8.798 -30.246
24.501 8.704 -29.817
24.687 8.603 -29.351
24.823 8.515 -28.885
24.950 8.429 -28.393
25.101 8.289 -27.754
25.206 8.163 -27.200
25.284 8.027 -26.650
25.190 7.935 -26.236
24.818 7.803 -25.826
23.595 7.534 -25.482
23.599 7.468 -25.118
23.499 7.393 -24.754
23.552 7.267 -24.181
22.812 6.955 -23.684
22.315 6.912 -23.631
21.975 6.864 -23.531
21.477 6.804 -23.535
20.896 6.736 -23.513
-3.874 3.255 -24.607
-3.701 3.220 -24.187
-3.514 3.074 -23.606
-3.457 2.908 -22.939
-2.979 2.969 -22.763
-2.783 2.829 -22.156
-2.281 2.830 -21.894
-1.791 2.845 -21.697
-1.293 2.896 -21.663
-0.832 2.898 -21.426
-0.362 2.919 -21.258
0.140 2.979 -21.240
0.652 3.040 -21.227
1.155 3.094 -21.186
1.640 3.128 -21.065
2.120 3.155 -20.935
2.614 3.197 -20.860
3.111 3.244 -20.801
3.653 3.339 -20.890
4.155 3.370 -20.766
4.672 3.432 -20.735
5.150 3.475 -20.687
5.665 3.499 -20.610
19.842 4.718 -18.152
20.417 4.716 -17.830
20.803 4.693 -17.506
20.980 4.583 -16.929
20.881 4.439 -16.364
20.687 4.271 -15.729
20.476 4.118 -15.176
20.214 3.949 -14.585
20.036 3.848 -14.239
19.821 3.720 -13.805
19.631 3.590 -13.336
19.417 3.464 -12.891
19.153 3.325 -12.457
18.892 3.193 -12.033
18.611 3.062 -11.614
18.405 2.966 -11.308
18.113 2.832 -10.889
17.841 2.706 -10.494
17.556 2.580 -10.100
17.253 2.452 -9.719
16.939 2.328 -9.352
16.602 2.208 -9.010
16.247 2.086 -8.674
15.907 1.963 -8.330
15.541 1.847 -8.027
15.159 1.732 -7.726
14.744 1.616 -7.453
14.321 1.503 -7.185
13.895 1.384 -6.924
13.445 1.277 -6.703
12.941 1.168 -6.473
12.442 1.061 -6.277
11.973 0.958 -6.089
11.706 0.900 -6.002
11.226 0.812 -5.874
10.765 0.722 -5.727
10.285 0.635 -5.607
9.809 0.548 -5.495
9.320 0.469 -5.413
8.833 0.391 -5.336
8.340 0.311 -5.255
7.849 0.237 -5.191
7.366 0.159 -5.129
6.862 0.092 -5.104
6.378 0.018 -5.055
5.857 -0.045 -5.034
5.348 -0.114 -5.009
4.840 -0.182 -4.997
4.329 -0.243 -5.001
3.825 -0.307 -4.991
3.295 -0.368 -5.016
2.878 -0.425 -5.003
2.376 -0.479 -5.040
1.868 -0.534 -5.073
1.378 -0.578 -5.146
0.866 -0.636 -5.177
0.369 -0.683 -5.235
-0.109 -0.722 -5.320
-0.595 -0.763 -5.410
-1.086 -0.801 -5.510
-1.583 -0.845 -5.582
-2.060 -0.877 -5.710
-2.554 -0.915 -5.810
-3.032 -0.943 -5.944
-3.501 -0.966 -6.107
-3.963 -0.990 -6.240
-4.445 -1.010 -6.424
-4.914 -1.030 -6.583
-5.386 -1.053 -6.746
-5.840 -1.057 -6.976
-6.300 -1.055 -7.226
-6.759 -1.062 -7.443
-7.228 -1.069 -7.670
-7.683 -1.061 -7.956
-8.121 -1.047 -8.241
-8.546 -1.036 -8.527
-8.964 -1.026 -8.803
-9.374 -1.008 -9.096
-9.769 -0.985 -9.406
-10.152 -0.959 -9.723
-10.532 -0.933 -10.049
-10.896 -0.898 -10.389
-11.250 -0.865 -10.728
-11.620 -0.835 -11.059
-11.978 -0.798 -11.405
-12.277 -0.743 -11.811
-12.577 -0.691 -12.198
-12.888 -0.637 -12.600
-13.206 -0.577 -13.005
-13.500 -0.526 -13.394
-13.733 -0.440 -13.891
-13.976 -0.375 -14.320
-14.206 -0.292 -14.789
-14.399 -0.209 -15.247
-14.642 -0.132 -15.704
-14.779 -0.044 -16.169
-14.941 0.036 -16.633
-15.073 0.125 -17.092
-15.213 0.211 -17.555
-15.341 0.304 -18.022
-15.413 0.415 -18.532
-15.432 1.935 -25.136
-15.312 2.054 -25.591
-15.170 2.183 -26.055
-15.049 2.305 -26.526
-14.925 2.430 -26.996
-14.773 2.560 -27.472
-14.623 2.681 -27.920
-14.477 2.798 -28.356
-14.278 2.925 -28.803
-14.068 3.060 -29.260
-13.888 3.187 -29.704
-13.701 3.317 -30.168
-13.507 3.443 -30.617
-13.306 3.573 -31.078
-13.086 3.698 -31.495
-12.842 3.832 -31.938
-12.587 3.969 -32.402
-12.306 4.100 -32.816
-12.051 4.236 -33.266
-11.808 4.362 -33.686
-11.563 4.494 -34.115
-11.238 4.619 -34.485
-10.983 4.751 -34.922
-10.677 4.869 -35.264
-10.573 4.912 -35.395
-10.367 4.999 -35.666
-10.053 5.119 -36.012
-9.650 5.259 -36.394
-9.208 5.377 -36.674
-8.732 5.462 -36.777
-8.248 5.530 -36.807
-7.741 5.597 -36.821
-7.218 5.659 -36.802
-6.705 5.716 -36.773
-6.171 5.785 -36.773
-5.659 5.843 -36.766
-5.148 5.898 -36.752
-4.647 5.954 -36.724
-4.120 6.014 -36.695
-3.844 6.033 -36.646
-3.186 6.093 -36.527
-2.710 6.103 -36.309
-2.250 6.091 -36.051
-2.300 5.896 -35.239
-2.136 5.830 -34.811
-2.395 5.535 -33.679
-2.594 5.398 -33.192
-2.804 5.247 -32.653
-2.893 5.129 -32.189
-2.929 4.991 -31.608
-3.289 4.838 -31.143
-3.448 4.710 -30.679
-3.554 4.511 -29.873
-3.470 4.379 -29.253
-3.509 4.203 -28.511
-3.531 4.033 -27.788
15.610 7.445 -31.246
18.163 8.599 -35.755
18.681 8.661 -35.735
19.324 8.744 -35.787
19.840 8.806 -35.799
20.339 8.865 -35.810
20.831 8.914 -35.757
21.324 8.957 -35.684
21.772 8.961 -35.461
22.079 8.878 -34.931
22.335 8.818 -34.519
22.628 8.768 -34.141
22.983 8.719 -33.734
23.289 8.655 -33.261
23.521 8.599 -32.855
23.769 8.533 -32.407
24.040 8.456 -31.980
24.307 8.361 -31.417
24.519 8.272 -30.968
24.715 8.181 -30.510
24.844 8.119 -30.035
25.057 8.034 -29.580
25.225 7.925 -29.090
25.349 7.844 -28.635
25.460 7.730 -28.184
25.583 7.646 -27.759
25.555 7.561 -27.288
25.659 7.422 -26.734
25.558 7.319 -26.318
25.142 7.162 -25.869
24.088 6.947 -25.464
23.978 6.860 -25.148
23.884 6.761 -24.739
23.838 6.620 -24.195
23.127 6.337 -23.723
22.499 6.260 -23.595
21.810 6.149 -23.529
21.576 6.109 -23.500
21.062 6.049 -23.513
20.539 5.967 -23.492
-4.007 2.644 -25.017
-3.887 2.584 -24.692
-3.784 2.477 -24.140
-3.737 2.310 -23.439
-3.602 2.185 -22.833
-3.293 2.147 -22.472
-2.881 2.120 -22.126
-2.329 2.145 -21.913
-1.748 2.157 -21.691
-1.298 2.169 -21.495
-0.796 2.215 -21.425
-0.293 2.264 -21.359
0.207 2.319 -21.336
0.692 2.355 -21.221
1.193 2.402 -21.162
1.674 2.435 -21.041
2.155 2.466 -20.913
2.656 2.518 -20.862
3.145 2.552 -20.757
3.632 2.577 -20.642
4.166 2.657 -20.669
4.654 2.686 -20.560
5.152 2.733 -20.508
5.644 2.765 -20.464
6.238 2.855 -20.493
6.719 2.907 -20.510
6.905 2.934 -20.531
7.397 3.019 -20.589
19.819 4.044 -18.333
19.958 4.048 -18.209
20.447 4.052 -17.945
20.865 4.040 -17.635
21.175 3.932 -16.999
21.128 3.828 -16.573
20.897 3.658 -15.954
20.710 3.501 -15.366
20.455 3.340 -14.801
20.145 3.159 -14.174
20.014 3.079 -13.913
19.788 2.950 -13.456
19.557 2.818 -13.019
19.347 2.691 -12.569
19.078 2.558 -12.152
18.775 2.420 -11.725
18.517 2.287 -11.301
18.213 2.152 -10.882
17.991 2.053 -10.573
17.702 1.923 -10.173
17.387 1.797 -9.805
17.084 1.674 -9.433
16.752 1.552 -9.083
16.419 1.431 -8.740
16.053 1.312 -8.415
15.683 1.194 -8.098
15.283 1.078 -7.819
14.870 0.964 -7.542
14.448 0.850 -7.275
14.004 0.735 -7.019
13.585 0.627 -6.779
13.082 0.517 -6.558
12.613 0.407 -6.353
12.269 0.334 -6.227
11.806 0.241 -6.078
11.336 0.155 -5.946
10.862 0.068 -5.824
10.378 -0.012 -5.708
9.899 -0.096 -5.597
9.417 -0.182 -5.493
8.940 -0.260 -5.412
8.450 -0.334 -5.344
7.957 -0.414 -5.276
7.470 -0.493 -5.195
6.972 -0.568 -5.146
6.469 -0.636 -5.125
5.989 -0.707 -5.078
5.472 -0.775 -5.059
4.947 -0.843 -5.053
4.426 -0.901 -5.076
3.961 -0.965 -5.057
3.403 -1.031 -5.065
2.905 -1.094 -5.065
2.365 -1.149 -5.123
1.943 -1.193 -5.164
1.415 -1.248 -5.200
0.934 -1.300 -5.247
0.426 -1.350 -5.299
-0.045 -1.386 -5.394
-0.552 -1.438 -5.450
-1.029 -1.473 -5.557
-1.521 -1.511 -5.648
-2.003 -1.548 -5.758
-2.490 -1.578 -5.880
-2.966 -1.608 -6.016
-3.439 -1.630 -6.169
-3.932 -1.665 -6.293
-4.395 -1.688 -6.446
-4.850 -1.701 -6.635
-5.324 -1.714 -6.833
-5.801 -1.736 -6.988
-6.248 -1.729 -7.267
-6.794 -1.737 -7.521
-7.153 -1.732 -7.745
-7.675 -1.724 -8.050
-8.050 -1.722 -8.262
-8.531 -1.705 -8.595
-8.942 -1.689 -8.886
-9.364 -1.673 -9.188
-9.788 -1.660 -9.467
-10.141 -1.628 -9.801
-10.537 -1.607 -10.111
-10.893 -1.570 -10.455
-11.225 -1.529 -10.819
-11.582 -1.494 -11.152
-11.926 -1.454 -11.524
-12.256 -1.410 -11.893
-12.556 -1.355 -12.284
-12.868 -1.300 -12.697
-13.187 -1.249 -13.078
-13.493 -1.173 -13.571
-13.710 -1.109 -13.964
-13.987 -1.030 -14.454
-14.223 -0.954 -14.914
-14.372 -0.865 -15.376
-14.595 -0.788 -15.835
-14.755 -0.702 -16.293
-14.944 -0.621 -16.758
-15.097 -0.532 -17.215
-15.208 -0.440 -17.687
-15.321 -0.341 -18.169
-15.406 -0.236 -18.662
-15.487 -0.134 -19.142
-15.595 -0.039 -19.620
-15.647 0.923 -23.858
-15.588 1.044 -24.349
-15.511 1.165 -24.829
-15.424 1.282 -25.301
-15.308 1.410 -25.768
-15.201 1.534 -26.236
-15.052 1.657 -26.698
-14.929 1.784 -27.184
-14.818 1.902 -27.636
-14.666 2.025 -28.085
-14.498 2.151 -28.540
-14.337 2.261 -28.927
-14.101 2.414 -29.454
-13.923 2.539 -29.897
-13.736 2.666 -30.353
-13.598 2.787 -30.804
-13.309 2.920 -31.233
-13.069 3.072 -31.762
-12.822 3.201 -32.189
-12.556 3.330 -32.598
-12.327 3.469 -33.078
-12.087 3.597 -33.509
-11.830 3.728 -33.934
-11.574 3.862 -34.368
-11.327 3.961 -34.667
-10.974 4.112 -35.128
-10.681 4.236 -35.512
-10.359 4.362 -35.881
-10.006 4.492 -36.249
-9.587 4.639 -36.662
-9.131 4.720 -36.770
-8.624 4.794 -36.809
-8.132 4.865 -36.844
-7.623 4.925 -36.832
-7.112 4.993 -36.843
-6.591 5.042 -36.793
-6.138 5.100 -36.779
-5.609 5.169 -36.779
-5.104 5.218 -36.733
-4.606 5.264 -36.694
-3.885 5.340 -36.648
-3.301 5.371 -36.486
-2.861 5.388 -36.272
-2.631 5.330 -35.898
-2.697 5.173 -35.252
-2.685 5.073 -34.814
-2.825 4.918 -34.221
-2.859 4.803 -33.739
-2.970 4.674 -33.245
-3.075 4.546 -32.749
-3.235 4.395 -32.180
-3.259 4.271 -31.654
-3.549 4.124 -31.171
-3.698 3.951 -30.500
-3.813 3.745 -29.683
-3.660 3.639 -29.133
-3.618 3.492 -28.474
-3.700 3.300 -27.688
15.985 6.432 -30.758
16.206 6.728 -31.134
16.126 6.754 -31.784
15.963 6.994 -32.901
16.130 7.071 -33.280
16.402 7.319 -34.283
16.736 7.617 -35.339
16.736 7.681 -35.337
17.067 7.720 -35.422
17.726 7.833 -35.606
18.288 7.921 -35.711
18.796 7.992 -35.764
19.308 8.054 -35.744
19.906 8.136 -35.806
20.416 8.202 -35.838
20.898 8.255 -35.838
21.390 8.306 -35.812
21.864 8.334 -35.675
22.324 8.349 -35.454
22.414 8.324 -35.328
22.653 8.248 -34.860
22.980 8.206 -34.501
23.304 8.158 -34.120
23.592 8.101 -33.720
23.847 8.049 -33.351
24.149 7.972 -32.859
24.336 7.922 -32.554
24.397 7.902 -32.412
24.597 7.815 -31.865
24.685 7.770 -31.649
24.902 7.670 -31.178
25.096 7.584 -30.725
25.209 7.491 -30.243
25.419 7.424 -29.798
25.559 7.331 -29.346
25.675 7.236 -28.852
25.806 7.135 -28.386
25.926 7.013 -27.868
25.944 6.914 -27.351
26.001 6.792 -26.817
25.981 6.680 -26.342
25.686 6.550 -25.999
24.397 6.312 -25.438
24.402 6.248 -25.237
24.224 6.136 -24.800
24.128 6.008 -24.315
23.784 5.845 -23.938
23.423 5.721 -23.714
22.750 5.594 -23.599
22.205 5.499 -23.529
21.743 5.442 -23.502
21.214 5.384 -23.492
20.684 5.307 -23.479
17.263 5.350 -25.239
17.535 5.479 -25.653
17.348 5.652 -26.503
17.302 5.814 -27.223
-4.033 1.972 -25.107
-3.886 1.914 -24.768
-3.801 1.789 -24.165
-3.724 1.656 -23.572
-3.643 1.526 -22.966
-3.401 1.438 -22.443
-2.985 1.422 -22.107
-2.472 1.442 -21.906
-1.901 1.450 -21.694
-1.723 1.459 -21.635
-1.245 1.493 -21.525
-0.754 1.534 -21.436
-0.254 1.580 -21.361
0.254 1.643 -21.353
0.737 1.672 -21.223
1.220 1.704 -21.103
1.720 1.753 -21.049
2.199 1.782 -20.914
2.679 1.812 -20.782
3.162 1.841 -20.651
3.647 1.872 -20.531
4.170 1.942 -20.550
4.685 2.000 -20.522
5.185 2.039 -20.439
5.696 2.094 -20.395
6.213 2.154 -20.393
6.713 2.211 -20.387
7.253 2.289 -20.446
7.538 2.338 -20.494
8.015 2.418 -20.580
8.523 2.499 -20.679
19.333 3.317 -18.457
19.641 3.358 -18.418
20.423 3.384 -18.106
20.863 3.371 -17.711
21.175 3.293 -17.209
21.204 3.189 -16.736
21.044 3.032 -16.138
20.885 2.876 -15.542
20.625 2.708 -14.959
20.317 2.533 -14.380
20.160 2.436 -14.042
19.948 2.309 -13.598
19.721 2.180 -13.147
19.485 2.052 -12.719
19.236 1.916 -12.279
18.982 1.785 -11.850
18.668 1.648 -11.432
18.362 1.516 -11.022
18.123 1.401 -10.669
17.831 1.274 -10.277
17.514 1.152 -9.916
17.193 1.028 -9.545
16.875 0.905 -9.189
16.533 0.783 -8.851
16.160 0.663 -8.531
15.794 0.546 -8.224
15.402 0.429 -7.926
15.022 0.315 -7.643
14.609 0.201 -7.364
14.147 0.089 -7.120
13.701 -0.014 -6.891
13.283 -0.110 -6.699
12.815 -0.213 -6.502
12.365 -0.307 -6.337
11.897 -0.400 -6.184
11.431 -0.492 -6.041
10.962 -0.578 -5.917
10.474 -0.667 -5.803
9.996 -0.752 -5.690
9.514 -0.835 -5.592
9.033 -0.913 -5.501
8.542 -0.999 -5.413
8.062 -1.074 -5.344
7.555 -1.148 -5.295
7.065 -1.220 -5.239
6.564 -1.293 -5.202
6.060 -1.361 -5.189
5.555 -1.429 -5.158
5.042 -1.499 -5.146
4.542 -1.563 -5.135
4.019 -1.624 -5.148
3.520 -1.685 -5.156
3.011 -1.741 -5.189
2.479 -1.808 -5.191
2.004 -1.856 -5.235
1.500 -1.903 -5.303
0.992 -1.961 -5.332
0.506 -2.000 -5.423
0.007 -2.046 -5.487
-0.487 -2.097 -5.537
-0.983 -2.141 -5.625
-1.460 -2.178 -5.721
-1.940 -2.213 -5.828
-2.426 -2.239 -5.981
-2.898 -2.267 -6.109
-3.383 -2.302 -6.221
-3.857 -2.326 -6.374
-4.325 -2.343 -6.548
-4.786 -2.358 -6.742
-5.259 -2.374 -6.920
-5.727 -2.390 -7.108
-6.180 -2.392 -7.348
-6.635 -2.388 -7.604
-7.201 -2.398 -7.879
-7.538 -2.393 -8.078
-7.652 -2.393 -8.143
-8.067 -2.377 -8.425
-8.493 -2.367 -8.704
-8.857 -2.346 -8.981
-9.329 -2.339 -9.275
-9.728 -2.316 -9.581
-10.107 -2.288 -9.906
-10.509 -2.271 -10.212
-10.857 -2.236 -10.552
-11.199 -2.194 -10.902
-11.551 -2.155 -11.264
-11.892 -2.115 -11.630
-12.217 -2.068 -12.000
-12.543 -2.020 -12.381
-12.841 -1.964 -12.788
-13.137 -1.907 -13.191
-13.407 -1.841 -13.627
-13.656 -1.764 -14.092
-13.944 -1.682 -14.609
-14.177 -1.607 -15.057
-14.396 -1.529 -15.513
-14.558 -1.443 -15.974
-14.706 -1.353 -16.440
-14.882 -1.270 -16.904
-15.031 -1.181 -17.363
-15.159 -1.089 -17.831
-15.279 -0.994 -18.309
-15.398 -0.896 -18.789
-15.492 -0.797 -19.274
-15.579 -0.698 -19.749
-15.626 -0.591 -20.237
-15.623 0.277 -24.033
-15.552 0.396 -24.509
-15.483 0.517 -24.989
-15.414 0.637 -25.468
-15.306 0.760 -25.936
-15.201 0.884 -26.411
-15.085 1.004 -26.890
-14.937 1.126 -27.332
-14.795 1.256 -27.804
-14.635 1.380 -28.255
-14.468 1.504 -28.705
-14.310 1.630 -29.170
-14.112 1.764 -29.629
-13.921 1.888 -30.067
-13.724 2.017 -30.520
-13.531 2.143 -30.960
-13.296 2.273 -31.403
-13.035 2.433 -31.964
-12.786 2.560 -32.375
-12.571 2.701 -32.866
-12.334 2.832 -33.314
-12.051 2.957 -33.702
-11.811 3.093 -34.150
-11.556 3.223 -34.579
-11.266 3.349 -34.972
-10.962 3.472 -35.342
-10.669 3.599 -35.732
-10.336 3.724 -36.093
-9.933 3.865 -36.485
-9.503 3.988 -36.786
-9.026 4.056 -36.823
-8.515 4.126 -36.839
-8.003 4.188 -36.837
-7.495 4.251 -36.834
-6.969 4.306 -36.802
-6.601 4.350 -36.788
-6.103 4.406 -36.743
-5.568 4.461 -36.713
-5.040 4.534 -36.726
-4.561 4.577 -36.676
-3.986 4.625 -36.584
-3.684 4.590 -36.308
-3.245 4.565 -35.900
-3.023 4.408 -35.098
-3.121 4.341 -34.855
-3.220 4.203 -34.322
-3.244 4.079 -33.799
-3.256 3.961 -33.293
-3.356 3.828 -32.767
-3.408 3.708 -32.278
-3.575 3.565 -31.757
-3.634 3.429 -31.191
-3.871 3.215 -30.392
-3.877 3.050 -29.689
-3.716 2.946 -29.144
-3.750 2.770 -28.409
-3.815 2.585 -27.641
17.255 4.714 -25.467
17.464 4.848 -25.945
17.596 4.991 -26.489
17.550 5.152 -27.210
17.461 5.317 -27.974
17.311 5.489 -28.797
16.643 5.712 -30.120
16.650 5.942 -30.809
16.638 6.008 -30.951
16.627 6.097 -31.621
16.574 6.246 -32.350
16.514 6.353 -32.882
16.669 6.486 -33.427
16.869 6.670 -34.102
16.791 6.860 -34.846
17.004 6.974 -35.220
17.317 7.081 -35.408
17.936 7.180 -35.560
18.425 7.257 -35.711
18.913 7.321 -35.753
19.410 7.391 -35.806
19.903 7.462 -35.854
20.442 7.528 -35.858
20.967 7.592 -35.895
21.452 7.643 -35.870
21.945 7.683 -35.796
22.433 7.720 -35.681
22.865 7.724 -35.450
23.033 7.708 -35.312
23.346 7.660 -34.938
23.617 7.596 -34.513
23.879 7.526 -34.047
24.186 7.478 -33.688
24.420 7.397 -33.208
24.610 7.294 -32.639
24.825 7.246 -32.306
25.055 7.164 -31.858
25.226 7.089 -31.396
25.365 6.988 -30.926
25.541 6.901 -30.479
25.707 6.818 -30.006
25.861 6.732 -29.538
25.989 6.630 -29.063
26.097 6.531 -28.586
26.213 6.395 -27.936
26.238 6.291 -27.437
26.326 6.167 -26.898
26.251 6.058 -26.458
26.040 5.940 -26.071
25.165 5.692 -25.622
24.663 5.592 -25.266
24.563 5.497 -24.839
24.477 5.410 -24.503
24.368 5.291 -24.198
24.047 5.140 -23.908
23.629 5.026 -23.771
22.960 4.910 -23.584
22.803 4.900 -23.554
22.321 4.838 -23.509
21.824 4.769 -23.477
21.317 4.718 -23.528
20.812 4.664 -23.529
-13.175 1.672 -31.716
-12.985 1.787 -32.115
-12.753 1.927 -32.588
-12.519 2.056 -33.027
-12.273 2.187 -33.468
-12.002 2.316 -33.879
-11.769 2.454 -34.345
-11.491 2.579 -34.735
-11.215 2.708 -35.154
-10.908 2.831 -35.516
-10.688 2.934 -35.840
-10.307 3.093 -36.320
-9.859 3.228 -36.669
-9.380 3.321 -36.816
-8.907 3.389 -36.851
-8.407 3.458 -36.869
-7.894 3.518 -36.841
-7.371 3.575 -36.816
-7.083 3.604 -36.795
-6.575 3.659 -36.756
-6.072 3.715 -36.729
-5.539 3.783 -36.731
-5.022 3.826 -36.676
-4.813 3.837 -36.646
-4.143 3.895 -36.488
-3.807 3.868 -36.171
-3.478 3.818 -35.780
-3.428 3.653 -35.029
-3.355 3.494 -34.304
-3.407 3.384 -33.863
-3.439 3.265 -33.365
-3.470 3.145 -32.861
-3.531 3.029 -32.384
-3.651 2.888 -31.842
-3.786 2.742 -31.286
-3.806 2.699 -31.105
-3.858 2.536 -30.430
-3.896 2.371 -29.741
-3.825 2.236 -29.108
-3.957 2.027 -28.274
-4.019 1.842 -27.510
-4.325 1.610 -26.674
-4.308 1.450 -25.970
-4.093 1.329 -25.329
-3.887 1.242 -24.837
-3.757 1.123 -24.258
-3.694 0.987 -23.645
-3.641 0.855 -23.037
-3.396 0.766 -22.507
-3.043 0.728 -22.141
-2.517 0.743 -21.940
-2.147 0.758 -21.808
-1.674 0.775 -21.632
-1.205 0.811 -21.528
-0.719 0.846 -21.418
-0.199 0.904 -21.391
0.292 0.953 -21.335
0.780 0.987 -21.221
1.272 1.030 -21.135
1.760 1.068 -21.033
2.237 1.094 -20.891
2.717 1.126 -20.772
3.205 1.166 -20.679
3.678 1.178 -20.470
4.184 1.239 -20.469
4.722 1.308 -20.479
5.202 1.335 -20.353
5.750 1.411 -20.377
6.244 1.466 -20.367
6.759 1.523 -20.354
7.209 1.588 -20.398
7.706 1.653 -20.432
8.155 1.746 -20.571
8.647 1.815 -20.625
9.159 1.893 -20.674
18.369 2.605 -18.659
18.921 2.639 -18.582
19.322 2.632 -18.456
20.337 2.696 -18.248
20.825 2.685 -17.754
21.229 2.647 -17.377
21.292 2.546 -16.891
21.219 2.407 -16.331
21.023 2.239 -15.690
20.757 2.066 -15.104
20.460 1.891 -14.506
20.183 1.726 -13.929
20.075 1.667 -13.733
19.847 1.536 -13.299
19.618 1.404 -12.846
19.359 1.274 -12.422
19.085 1.141 -12.001
18.788 1.008 -11.579
18.496 0.873 -11.157
18.144 0.731 -10.734
17.919 0.630 -10.425
17.609 0.506 -10.045
17.274 0.383 -9.696
16.952 0.261 -9.344
16.620 0.138 -8.994
16.266 0.015 -8.661
15.899 -0.094 -8.346
15.515 -0.207 -8.051
15.107 -0.322 -7.776
14.712 -0.438 -7.488
14.259 -0.549 -7.253
13.788 -0.656 -7.038
13.368 -0.757 -6.835
12.906 -0.864 -6.622
12.450 -0.956 -6.467
11.986 -1.050 -6.306
11.513 -1.141 -6.165
11.047 -1.230 -6.031
10.573 -1.319 -5.907
10.087 -1.403 -5.803
9.607 -1.487 -5.702
9.123 -1.568 -5.609
8.635 -1.648 -5.528
8.147 -1.723 -5.468
7.656 -1.798 -5.404
7.156 -1.872 -5.361
6.659 -1.945 -5.309
6.161 -2.014 -5.280
5.648 -2.078 -5.284
5.133 -2.147 -5.272
4.641 -2.215 -5.249
4.141 -2.278 -5.239
3.591 -2.340 -5.260
3.094 -2.393 -5.309
2.575 -2.455 -5.322
2.066 -2.511 -5.357
1.570 -2.560 -5.400
1.062 -2.614 -5.446
0.569 -2.663 -5.504
0.068 -2.709 -5.568
-0.418 -2.756 -5.640
-0.900 -2.789 -5.750
-1.384 -2.825 -5.855
-1.877 -2.863 -5.942
-2.356 -2.892 -6.076
-2.838 -2.930 -6.176
-3.309 -2.951 -6.339
-3.786 -2.979 -6.484
-4.257 -2.993 -6.672
-4.728 -3.014 -6.831
-5.193 -3.026 -7.040
-5.646 -3.038 -7.240
-6.113 -3.047 -7.441
-6.564 -3.044 -7.703
-7.017 -3.046 -7.935
-7.457 -3.038 -8.214
-8.028 -3.035 -8.541
-8.452 -3.021 -8.821
-8.840 -3.001 -9.128
-9.265 -2.985 -9.413
-9.672 -2.969 -9.707
-10.071 -2.947 -10.019
-10.435 -2.916 -10.348
-10.807 -2.886 -10.683
-11.158 -2.846 -11.037
-11.494 -2.807 -11.386
-11.826 -2.766 -11.750
-12.159 -2.718 -12.132
-12.477 -2.670 -12.517
-12.777 -2.614 -12.918
-13.074 -2.558 -13.319
-13.336 -2.492 -13.756
-13.596 -2.419 -14.212
-13.917 -2.334 -14.754
-14.125 -2.255 -15.201
-14.320 -2.184 -15.623
-14.533 -2.096 -16.111
-14.688 -2.008 -16.566
-14.841 -1.919 -17.038
-14.987 -1.835 -17.495
-15.101 -1.735 -17.976
-15.239 -1.643 -18.451
-15.341 -1.546 -18.931
-15.437 -1.448 -19.404
-15.511 -1.346 -19.889
-15.569 -1.239 -20.383
-15.628 -1.132 -20.879
-15.642 -0.552 -23.398
-15.616 -0.479 -23.701
-15.567 -0.360 -24.186
-15.519 -0.243 -24.667
-15.447 -0.121 -25.149
-15.356 -0.001 -25.622
-15.266 0.112 -26.099
-15.155 0.234 -26.567
-15.030 0.358 -27.036
-14.905 0.480 -27.496
-14.754 0.607 -27.961
-14.607 0.731 -28.413
-14.430 0.859 -28.875
-14.278 0.984 -29.332
-14.085 1.112 -29.787
-13.918 1.236 -30.230
-13.701 1.366 -30.679
-13.512 1.492 -31.127
-13.251 1.628 -31.566
17.364 4.064 -25.589
17.571 4.201 -26.066
17.759 4.339 -26.554
17.756 4.495 -27.236
17.656 4.662 -28.012
17.528 4.831 -28.810
17.006 5.040 -29.997
16.976 5.084 -30.193
16.888 5.208 -30.788
16.911 5.361 -31.442
17.038 5.557 -32.108
17.116 5.704 -32.740
17.070 5.874 -33.496
17.278 5.973 -33.867
17.297 6.146 -34.568
17.405 6.339 -35.068
17.679 6.469 -35.480
18.208 6.525 -35.633
18.569 6.583 -35.737
19.048 6.653 -35.799
19.518 6.721 -35.859
20.005 6.792 -35.886
20.533 6.862 -35.904
21.028 6.920 -35.891
21.523 6.980 -35.930
22.019 7.029 -35.893
22.512 7.073 -35.822
22.980 7.098 -35.684
23.393 7.087 -35.404
23.539 7.056 -35.195
23.827 7.003 -34.807
24.139 6.953 -34.412
24.371 6.866 -33.906
24.656 6.810 -33.523
24.864 6.717 -32.986
25.125 6.645 -32.561
25.325 6.558 -32.060
25.503 6.475 -31.589
25.661 6.386 -31.135
25.830 6.302 -30.672
25.973 6.211 -30.192
26.122 6.116 -29.707
26.246 6.020 -29.247
26.345 5.921 -28.767
26.435 5.816 -28.296
26.486 5.750 -28.012
26.515 5.646 -27.524
26.544 5.528 -26.982
26.469 5.427 -26.551
26.378 5.301 -26.102
25.597 5.094 -25.661
25.392 5.049 -25.559
24.919 4.954 -25.321
24.790 4.842 -24.945
24.762 4.763 -24.607
24.593 4.629 -24.170
24.323 4.494 -23.811
23.939 4.393 -23.711
23.209 4.277 -23.600
22.971 4.238 -23.561
22.439 4.172 -23.514
21.928 4.106 -23.512
21.438 4.052 -23.560
20.920 3.998 -23.593
20.402 3.947 -23.632
19.959 3.918 -23.690
-12.858 1.191 -32.448
-12.690 1.285 -32.760
-12.465 1.414 -33.206
-12.223 1.551 -33.665
-11.943 1.676 -34.056
-11.686 1.807 -34.476
-11.425 1.936 -34.903
-11.153 2.065 -35.316
-10.875 2.194 -35.721
-10.607 2.300 -36.031
-10.184 2.458 -36.492
-9.762 2.572 -36.750
-9.282 2.652 -36.848
-8.794 2.718 -36.862
-8.283 2.775 -36.830
-7.743 2.832 -36.788
-7.224 2.890 -36.765
-7.044 2.915 -36.759
-6.531 2.976 -36.745
-6.033 3.031 -36.724
-5.516 3.087 -36.703
-4.995 3.130 -36.641
-4.273 3.183 -36.453
-3.843 3.171 -36.155
-3.624 3.083 -35.663
-3.570 2.928 -34.958
-3.500 2.827 -34.478
-3.533 2.705 -33.968
-3.567 2.583 -33.456
-3.596 2.462 -32.953
-3.653 2.339 -32.448
-3.740 2.208 -31.923
-3.818 2.027 -31.182
-3.889 1.860 -30.507
-3.971 1.673 -29.735
-4.040 1.486 -28.960
-4.071 1.313 -28.232
-4.110 1.137 -27.488
-4.124 0.969 -26.770
-4.143 0.801 -26.055
-4.048 0.674 -25.446
-3.894 0.569 -24.915
-3.763 0.459 -24.369
-3.651 0.333 -23.767
-3.585 0.182 -23.076
-3.354 0.106 -22.618
-2.989 0.059 -22.203
-2.561 0.055 -21.965
-2.090 0.088 -21.855
-1.619 0.105 -21.677
-1.155 0.130 -21.531
-0.659 0.184 -21.492
-0.142 0.234 -21.444
0.344 0.280 -21.370
0.828 0.312 -21.244
1.310 0.344 -21.128
1.800 0.381 -21.022
2.290 0.423 -20.941
2.773 0.456 -20.811
3.263 0.494 -20.711
3.742 0.516 -20.560
4.232 0.551 -20.452
4.759 0.621 -20.467
5.274 0.668 -20.388
5.799 0.732 -20.387
6.328 0.780 -20.326
6.829 0.843 -20.338
7.331 0.918 -20.411
7.895 1.001 -20.476
8.302 1.068 -20.532
8.802 1.150 -20.600
9.314 1.215 -20.620
9.860 1.287 -20.634
10.375 1.335 -20.547
10.912 1.384 -20.433
11.409 1.435 -20.318
11.948 1.470 -20.199
12.497 1.512 -20.109
13.047 1.546 -19.969
13.620 1.569 -19.781
14.161 1.614 -19.672
17.942 1.873 -18.735
18.439 1.905 -18.665
19.145 1.968 -18.611
19.331 1.960 -18.385
20.154 1.992 -18.471
20.764 2.002 -17.808
21.174 1.969 -17.440
21.314 1.762 -16.464
21.144 1.609 -15.890
20.893 1.429 -15.250
20.578 1.257 -14.667
20.299 1.091 -14.105
20.191 1.027 -13.888
19.935 0.892 -13.442
19.711 0.760 -13.003
19.446 0.627 -12.563
19.162 0.492 -12.133
18.844 0.354 -11.715
18.542 0.224 -11.304
18.216 0.089 -10.893
17.873 -0.040 -10.490
17.664 -0.127 -10.223
17.343 -0.253 -9.852
17.015 -0.375 -9.506
