-10.266	4.747	-36.01
-10.046	4.801	-36.127
-9.868	4.867	-36.311
-9.709	4.925	-36.479
-9.483	4.98	-36.591
-9.389	4.999	-36.628
-9.158	5.053	-36.726
-8.922	5.096	-36.784
-8.689	5.129	-36.805
-8.445	5.166	-36.837
-8.19	5.2	-36.841
-7.943	5.233	-36.848
-7.681	5.262	-36.823
-7.418	5.291	-36.818
-7.155	5.326	-36.821
-6.905	5.348	-36.795
-6.645	5.381	-36.798
-6.382	5.412	-36.788
-6.153	5.444	-36.789
-5.903	5.472	-36.77
-5.628	5.508	-36.77
-5.373	5.535	-36.749
-5.113	5.566	-36.747
-4.873	5.592	-36.738
-4.617	5.613	-36.711
-4.222	5.661	-36.69
-3.842	5.698	-36.66
-3.552	5.719	-36.616
-3.199	5.733	-36.559
-3.036	5.737	-36.389
-2.884	5.729	-36.274
-2.272	5.605	-36.343
-1.818	6.186	-36.704
15.433	7.968	-36.072
15.598	7.999	-36.111
18.999	8.36	-35.764
19.253	8.388	-35.764
19.346	8.4	-35.769
19.607	8.434	-35.785
19.878	8.473	-35.813
20.117	8.5	-35.822
20.372	8.533	-35.836
20.618	8.558	-35.815
20.867	8.585	-35.806
21.112	8.608	-35.773
21.363	8.635	-35.755
21.599	8.646	-35.679
21.829	8.654	-35.587
22.105	8.643	-35.395
22.249	8.603	-35.14
22.412	8.599	-35.02
22.452	8.523	-34.648
22.747	8.531	-34.543
22.786	8.485	-34.301
22.994	8.475	-34.159
23.122	8.427	-33.879
23.352	8.422	-33.778
23.465	8.383	-33.5
23.586	8.355	-33.298
23.731	8.324	-33.105
23.816	8.289	-32.875
23.84	8.256	-32.627
24.098	8.22	-32.437
24.204	8.173	-32.152
24.297	8.146	-31.982
24.382	8.115	-31.757
24.513	8.065	-31.5
24.574	8.034	-31.318
24.718	7.968	-31.093
24.761	7.933	-30.849
24.904	7.88	-30.609
24.97	7.844	-30.38
25.028	7.801	-30.141
25.109	7.753	-29.916
25.237	7.712	-29.694
25.375	7.674	-29.436
25.427	7.639	-29.226
25.467	7.596	-28.979
25.529	7.536	-28.745
25.605	7.48	-28.511
25.661	7.431	-28.292
25.698	7.389	-28.06
25.76	7.338	-27.812
25.797	7.286	-27.555
25.73	7.242	-27.332
25.859	7.162	-27.019
25.843	7.114	-26.789
25.806	7.058	-26.542
25.789	7.002	-26.297
25.705	6.938	-26.072
25.405	6.839	-25.839
24.927	6.713	-25.632
24.267	6.637	-25.462
24.256	6.603	-25.373
24.173	6.556	-25.19
24.111	6.506	-24.989
24.077	6.461	-24.814
24.095	6.384	-24.452
24.07	6.322	-24.219
23.903	6.252	-24.051
23.739	6.173	-23.839
23.579	6.111	-23.668
23.316	6.045	-23.686
23.013	5.987	-23.677
22.606	5.942	-23.633
22.343	5.884	-23.606
21.918	5.83	-23.639
21.57	5.778	-23.595
-2.304	5.464	-34.814
-2.591	5.346	-34.455
-2.641	5.282	-34.207
-2.581	5.239	-33.987
-2.729	5.148	-33.677
-2.828	5.075	-33.408
-2.664	5.051	-33.22
-2.767	4.976	-32.953
-2.887	4.889	-32.639
-3.033	4.697	-31.881
-3.044	4.637	-31.635
-3.113	4.573	-31.39
-3.309	4.494	-31.151
-3.589	4.395	-30.873
-3.575	4.329	-30.585
-3.602	4.238	-30.208
-3.734	4.112	-29.729
-3.663	4.054	-29.447
-3.58	4.004	-29.179
-3.544	3.936	-28.863
-3.568	3.844	-28.487
-3.625	3.743	-28.077
-3.647	3.654	-27.707
-3.518	3.621	-27.483
16.426	5.673	-25.596
16.607	5.731	-25.755
16.611	5.81	-26.094
17.216	5.828	-25.844
17.269	5.901	-26.131
15.998	6.918	-30.247
15.869	7.12	-30.685
16.075	7.224	-30.905
15.791	6.994	-31.355
15.753	7.025	-31.672
15.778	7.1	-31.964
16.048	7.215	-32.439
16.152	7.267	-32.63
16.278	7.373	-33.039
16.197	7.418	-33.275
16.319	7.474	-33.457
16.255	7.522	-33.695
16.256	7.571	-33.939
16.16	7.72	-36.097
19.06	8.022	-35.773
19.307	8.054	-35.787
19.376	8.065	-35.79
19.635	8.094	-35.785
19.915	8.136	-35.801
20.151	8.169	-35.843
20.405	8.205	-35.868
20.65	8.225	-35.843
20.905	8.256	-35.843
21.153	8.282	-35.829
21.387	8.303	-35.796
21.632	8.321	-35.743
21.872	8.329	-35.656
22.111	8.349	-35.601
22.305	8.34	-35.457
22.406	8.321	-35.321
22.574	8.307	-35.167
22.655	8.258	-34.878
22.856	8.248	-34.749
22.991	8.212	-34.501
23.215	8.209	-34.4
23.296	8.152	-34.102
23.497	8.142	-33.966
23.641	8.105	-33.714
23.721	8.073	-33.528
23.915	8.046	-33.319
24.021	8.011	-33.084
24.069	7.991	-32.967
24.108	7.974	-32.776
24.297	7.926	-32.611
24.365	7.896	-32.356
24.497	7.865	-32.138
24.583	7.832	-31.876
24.675	7.77	-31.626
24.754	7.72	-31.403
24.893	7.67	-31.153
24.984	7.637	-30.941
25.086	7.577	-30.703
25.134	7.536	-30.481
25.206	7.501	-30.252
25.287	7.472	-30.044
25.394	7.431	-29.812
25.542	7.358	-29.52
25.56	7.329	-29.326
25.62	7.278	-29.097
25.676	7.234	-28.852
25.744	7.187	-28.625
25.806	7.139	-28.392
25.888	7.077	-28.105
25.946	7.029	-27.874
25.913	6.978	-27.62
25.931	6.92	-27.359
26.022	6.858	-27.058
26.026	6.802	-26.812
25.962	6.746	-26.585
26.009	6.688	-26.314
25.875	6.626	-26.114
25.71	6.535	-25.825
25.258	6.426	-25.696
25.014	6.378	-25.623
24.426	6.326	-25.481
24.418	6.283	-25.382
24.398	6.24	-25.218
24.303	6.19	-25.031
24.189	6.128	-24.808
24.222	6.054	-24.491
24.127	6	-24.313
24.117	5.985	-24.245
24.034	5.896	-23.958
23.809	5.847	-23.871
23.668	5.789	-23.714
23.388	5.727	-23.64
23.143	5.659	-23.6
22.739	5.611	-23.597
22.424	5.559	-23.567
22.106	5.491	-23.603
21.694	5.425	-23.585
21.428	5.402	-23.556
21.192	5.369	-23.563
-4.04	2.773	-25.596
-4.064	2.683	-25.218
-4.015	2.62	-24.919
-3.901	2.582	-24.69
-3.858	2.522	-24.411
-3.804	2.464	-24.132
-3.729	2.406	-23.849
-3.671	2.313	-23.411
-3.525	2.309	-23.298
-3.597	2.219	-22.971
-3.481	2.16	-22.652
-3.306	2.134	-22.447
-3.022	2.133	-22.262
-2.877	2.118	-22.123
-2.654	2.128	-22.058
-2.49	2.123	-21.934
-2.191	2.144	-21.87
-1.966	2.134	-21.711
-1.743	2.155	-21.677
-1.52	2.165	-21.606
-1.297	2.172	-21.506
-1.053	2.19	-21.46
-0.806	2.216	-21.432
-0.544	2.225	-21.336
-0.303	2.257	-21.345
-0.046	2.292	-21.353
0.205	2.317	-21.328
0.448	2.333	-21.255
0.692	2.356	-21.222
0.95	2.387	-21.219
1.191	2.402	-21.16
1.429	2.416	-21.088
1.675	2.434	-21.046
1.918	2.454	-20.987
2.156	2.465	-20.916
2.417	2.503	-20.933
2.666	2.514	-20.84
2.883	2.514	-20.728
3.136	2.548	-20.742
3.39	2.556	-20.666
3.63	2.576	-20.622
3.897	2.61	-20.638
4.164	2.651	-20.656
4.416	2.673	-20.615
4.658	2.689	-20.56
4.892	2.722	-20.554
5.166	2.74	-20.494
5.359	2.746	-20.455
5.685	2.78	-20.433
5.898	2.801	-20.438
6.324	2.87	-20.485
6.459	2.868	-20.457
6.682	2.898	-20.473
18.118	3.88	-18.526
18.605	3.922	-18.57
19.295	4.025	-18.426
19.471	4.035	-18.363
19.734	4.05	-18.27
19.956	4.048	-18.145
20.181	4.046	-18.022
20.428	4.05	-17.912
20.641	4.046	-17.769
20.857	4.04	-17.634
21.019	4.019	-17.454
21.106	3.998	-17.314
21.174	3.951	-17.076
21.119	3.884	-16.814
21.126	3.827	-16.566
21.005	3.738	-16.238
20.918	3.66	-15.949
20.841	3.59	-15.685
20.694	3.501	-15.382
20.546	3.409	-15.048
20.464	3.342	-14.801
20.353	3.277	-14.57
20.245	3.215	-14.356
20.138	3.15	-14.116
20.028	3.082	-13.898
19.894	3.015	-13.685
19.781	2.95	-13.468
19.669	2.885	-13.243
19.554	2.818	-13.015
19.458	2.756	-12.796
19.345	2.689	-12.567
19.269	2.644	-12.408
19.119	2.581	-12.218
19.085	2.561	-12.144
18.99	2.501	-11.916
18.833	2.441	-11.772
18.702	2.375	-11.571
18.58	2.316	-11.37
18.426	2.247	-11.16
18.293	2.186	-10.963
18.167	2.123	-10.757
18.004	2.061	-10.573
17.843	1.993	-10.378
17.705	1.928	-10.174
17.528	1.869	-10.026
17.366	1.803	-9.828
17.217	1.737	-9.637
17.062	1.675	-9.449
16.9	1.614	-9.273
16.726	1.555	-9.105
16.566	1.502	-8.95
16.398	1.432	-8.75
16.228	1.377	-8.593
16.039	1.315	-8.427
15.853	1.255	-8.271
15.667	1.195	-8.104
15.487	1.137	-7.949
15.297	1.078	-7.809
15.108	1.025	-7.664
14.875	0.964	-7.536
14.671	0.91	-7.404
14.452	0.851	-7.267
14.254	0.796	-7.139
14.073	0.753	-7.05
13.821	0.688	-6.899
13.58	0.631	-6.785
13.41	0.592	-6.709
13.171	0.539	-6.612
12.958	0.491	-6.513
12.724	0.437	-6.411
12.502	0.39	-6.324
12.273	0.342	-6.248
12.04	0.293	-6.165
11.8	0.249	-6.095
11.566	0.201	-6.02
11.312	0.151	-5.946
11.084	0.112	-5.886
7.71	-0.452	-5.253
7.464	-0.488	-5.222
7.218	-0.524	-5.193
6.959	-0.563	-5.167
6.713	-0.594	-5.158
6.473	-0.63	-5.138
6.213	-0.666	-5.127
5.971	-0.704	-5.1
5.712	-0.736	-5.098
5.479	-0.768	-5.088
5.191	-0.801	-5.094
4.937	-0.838	-5.076
4.712	-0.869	-5.063
4.488	-0.889	-5.086
4.23	-0.921	-5.09
3.93	-0.962	-5.084
3.666	-0.989	-5.102
3.438	-1.022	-5.092
3.157	-1.056	-5.09
2.91	-1.087	-5.094
2.644	-1.119	-5.104
2.448	-1.135	-5.131
2.187	-1.169	-5.125
1.932	-1.188	-5.173
1.679	-1.214	-5.206
1.424	-1.245	-5.214
1.169	-1.272	-5.255
0.942	-1.291	-5.274
0.692	-1.313	-5.315
0.448	-1.337	-5.344
0.193	-1.363	-5.371
-0.061	-1.386	-5.4
-0.295	-1.409	-5.433
-0.555	-1.429	-5.487
-0.794	-1.454	-5.503
-1.028	-1.463	-5.572
-1.271	-1.488	-5.621
-1.508	-1.505	-5.673
-1.779	-1.526	-5.719
-2.008	-1.542	-5.781
-2.243	-1.555	-5.847
-2.475	-1.575	-5.894
-2.709	-1.582	-5.981
-2.959	-1.604	-6.025
-3.187	-1.611	-6.128
-3.438	-1.626	-6.196
-3.672	-1.64	-6.262
-3.926	-1.659	-6.308
-4.155	-1.673	-6.376
-4.385	-1.678	-6.475
-4.614	-1.686	-6.574
-4.844	-1.692	-6.663
-5.073	-1.696	-6.773
-5.303	-1.704	-6.85
-5.551	-1.713	-6.959
-5.787	-1.729	-7.017
-6.01	-1.729	-7.137
-6.08	-1.728	-7.184
-6.289	-1.721	-7.315
-6.537	-1.726	-7.428
-6.697	-1.729	-7.509
-6.928	-1.729	-7.635
-7.009	-1.73	-7.675
-7.195	-1.723	-7.799
-7.41	-1.715	-7.952
-7.581	-1.716	-8.045
-7.809	-1.716	-8.165
-8.026	-1.714	-8.297
-8.089	-1.71	-8.337
-8.271	-1.698	-8.495
-8.523	-1.7	-8.623
-8.717	-1.692	-8.751
-8.911	-1.682	-8.909
-9.124	-1.673	-9.061
-9.339	-1.665	-9.212
-9.55	-1.657	-9.366
-9.771	-1.654	-9.502
-9.928	-1.636	-9.662
-10.12	-1.622	-9.823
-10.293	-1.601	-10.002
-10.509	-1.596	-10.141
-10.701	-1.582	-10.302
-10.888	-1.569	-10.451
-11.059	-1.547	-10.65
-11.231	-1.529	-10.82
-11.404	-1.507	-11.001
-11.589	-1.49	-11.179
-11.737	-1.468	-11.362
-11.915	-1.448	-11.531
-12.095	-1.43	-11.706
-12.258	-1.407	-11.901
-12.428	-1.383	-12.083
-12.575	-1.361	-12.257
-12.733	-1.331	-12.478
-12.861	-1.29	-12.724
-13.017	-1.267	-12.914
-13.16	-1.244	-13.094
-13.296	-1.206	-13.323
-13.442	-1.182	-13.513
-13.598	-1.151	-13.722
-13.655	-1.137	-13.795
-13.741	-1.093	-14.018
-13.863	-1.061	-14.245
-13.972	-1.021	-14.469
-14.084	-0.986	-14.696
-14.196	-0.95	-14.922
-14.302	-0.91	-15.146
-14.379	-0.859	-15.381
-14.492	-0.821	-15.623
-14.584	-0.783	-15.847
-14.662	-0.745	-16.062
-14.736	-0.7	-16.285
-14.845	-0.66	-16.527
-14.921	-0.616	-16.752
-15.003	-0.576	-16.989
-15.065	-0.529	-17.216
-15.12	-0.479	-17.463
-15.188	-0.43	-17.712
-15.244	-0.385	-17.944
-15.294	-0.337	-18.179
-15.343	-0.284	-18.419
-15.389	-0.232	-18.67
-15.437	-0.186	-18.905
-15.472	-0.134	-19.14
-15.526	-0.091	-19.368
-15.579	-0.038	-19.618
-15.6	0.007	-19.857
-15.631	0.062	-20.114
-15.649	0.116	-20.359
-15.681	0.169	-20.607
-15.451	1.224	-25.047
-15.403	1.286	-25.295
-15.366	1.347	-25.542
-15.296	1.412	-25.764
-15.261	1.473	-26.009
-15.188	1.535	-26.229
-15.122	1.597	-26.468
-15.042	1.658	-26.683
-14.968	1.723	-26.926
-14.915	1.781	-27.153
-14.872	1.839	-27.388
-14.791	1.903	-27.62
-14.725	1.969	-27.855
-14.65	2.03	-28.085
-14.58	2.091	-28.315
-14.499	2.154	-28.534
-14.396	2.228	-28.777
-14.318	2.287	-28.997
-14.217	2.352	-29.227
-14.136	2.414	-29.461
-14.059	2.482	-29.691
-13.969	2.546	-29.91
-13.869	2.609	-30.144
-13.759	2.675	-30.367
-13.664	2.737	-30.585
-13.598	2.791	-30.797
-13.431	2.863	-31.018
-13.292	2.936	-31.266
-13.183	2.988	-31.449
-13.09	3.052	-31.681
-12.972	3.12	-31.899
-12.935	3.139	-31.971
-12.815	3.205	-32.184
-12.718	3.252	-32.333
-12.586	3.317	-32.552
-12.492	3.376	-32.765
-12.357	3.443	-32.981
-12.253	3.507	-33.206
-12.117	3.576	-33.429
-12.068	3.597	-33.498
-11.924	3.657	-33.675
-11.816	3.728	-33.925
-11.706	3.774	-34.063
-11.624	3.832	-34.269
-11.568	3.859	-34.354
-11.393	3.916	-34.51
-11.269	3.986	-34.745
-11.111	4.046	-34.917
-10.978	4.11	-35.128
-10.848	4.178	-35.351
-10.683	4.236	-35.516
-10.529	4.3	-35.705
-10.373	4.364	-35.895
-10.232	4.428	-36.104
-10.045	4.486	-36.247
-9.887	4.546	-36.424
-9.688	4.602	-36.554
-9.421	4.666	-36.688
-9.123	4.72	-36.763
-8.871	4.757	-36.784
-8.627	4.794	-36.809
-8.372	4.827	-36.821
-8.125	4.865	-36.844
-7.867	4.894	-36.837
-7.617	4.927	-36.841
-7.356	4.958	-36.837
-7.11	4.993	-36.848
-6.856	5.011	-36.805
-6.666	5.034	-36.795
-6.397	5.067	-36.788
-6.126	5.102	-36.789
-5.88	5.129	-36.779
-5.609	5.166	-36.768
-5.357	5.189	-36.733
-5.096	5.22	-36.729
-4.873	5.247	-36.729
-4.59	5.27	-36.688
-4.228	5.315	-36.69
-3.876	5.348	-36.665
-3.595	5.363	-36.589
-3.266	5.371	-36.502
-3.215	5.344	-36.279
-2.864	5.367	-36.373
-2.623	5.367	-36.058
-2.716	5.307	-35.84
-2.885	5.193	-35.447
-2.611	5.169	-35.188
-2.417	5.164	-35.059
-2.797	5.065	-34.841
-2.75	4.991	-34.492
-2.834	4.918	-34.226
-2.77	4.875	-34.007
-2.855	4.803	-33.739
-2.891	4.741	-33.486
-2.943	4.678	-33.238
-2.939	4.617	-32.976
-3.047	4.538	-32.696
-2.826	4.548	-32.618
-3.201	4.397	-32.17
-3.201	4.335	-31.897
-3.23	4.275	-31.658
-3.31	4.205	-31.392
-3.448	4.137	-31.174
-3.555	4.048	-30.851
-3.697	3.949	-30.5
-3.643	3.889	-30.206
-3.813	3.745	-29.681
-3.729	3.694	-29.415
-3.66	3.639	-29.133
-3.601	3.579	-28.839
-3.618	3.492	-28.474
-3.69	3.383	-28.051
-3.7	3.3	-27.688
-3.537	3.277	-27.498
16.09	6.513	-30.773
16.03	6.587	-31.187
15.985	6.692	-31.612
16.133	6.725	-31.757
16.292	6.829	-32.118
16.295	6.839	-32.189
16.32	6.934	-32.586
16.315	6.965	-32.737
16.442	7.017	-32.896
16.411	7.096	-33.27
16.485	7.158	-33.493
16.54	7.211	-33.688
16.557	7.273	-33.945
16.504	7.315	-34.205
16.457	7.364	-34.476
16.479	7.408	-34.768
17.107	5.286	-25.048
17.131	5.361	-25.363
17.201	5.433	-25.637
17.335	5.497	-25.838
17.388	5.534	-25.97
17.369	5.576	-26.157
-4.127	2.488	-25.892
-4.064	2.429	-25.606
-4.089	2.338	-25.226
-4.021	2.309	-25.07
-3.986	2.295	-24.981
-3.874	2.252	-24.741
-3.839	2.188	-24.447
-3.809	2.123	-24.148
-3.793	2.052	-23.824
-3.734	1.989	-23.525
-3.683	1.887	-23.063
-3.617	1.856	-22.889
-3.507	1.822	-22.684
-3.347	1.779	-22.414
-3.126	1.781	-22.265
-2.911	1.766	-22.118
-2.625	1.796	-22.094
-2.398	1.781	-21.901
-2.184	1.795	-21.846
-1.943	1.794	-21.709
-1.726	1.807	-21.647
-1.496	1.824	-21.6
-1.276	1.826	-21.491
-1.029	1.852	-21.467
-0.768	1.872	-21.42
-0.523	1.891	-21.372
-0.277	1.916	-21.341
-0.012	1.949	-21.345
0.228	1.977	-21.332
0.467	1.997	-21.283
0.713	2.012	-21.226
0.967	2.04	-21.206
1.201	2.051	-21.119
1.458	2.082	-21.112
1.691	2.091	-21.023
1.949	2.121	-21.021
2.185	2.132	-20.94
2.426	2.151	-20.885
2.667	2.163	-20.819
2.911	2.181	-20.759
3.152	2.193	-20.695
3.387	2.197	-20.594
3.64	2.223	-20.576
3.902	2.257	-20.586
4.174	2.291	-20.586
4.435	2.326	-20.579
4.67	2.336	-20.519
4.966	2.369	-20.5
5.2	2.397	-20.47
5.388	2.401	-20.416
5.688	2.434	-20.398
5.919	2.456	-20.38
6.18	2.491	-20.393
6.482	2.522	-20.382
6.761	2.555	-20.397
6.982	2.596	-20.433
7.228	2.637	-20.477
7.478	2.675	-20.51
7.765	2.727	-20.571
7.999	2.759	-20.585
8.194	2.799	-20.627
18.301	3.592	-18.577
18.814	3.588	-18.531
19.115	3.661	-18.507
19.204	3.677	-18.471
19.47	3.695	-18.387
19.743	3.713	-18.321
19.971	3.715	-18.2
20.204	3.717	-18.087
20.423	3.713	-17.943
20.658	3.713	-17.82
20.865	3.707	-17.678
21.04	3.692	-17.525
21.105	3.664	-17.368
21.192	3.624	-17.147
21.191	3.563	-16.883
21.183	3.508	-16.651
21.061	3.419	-16.33
20.982	3.347	-16.044
20.935	3.282	-15.788
20.811	3.193	-15.46
20.656	3.102	-15.141
20.552	3.028	-14.878
20.416	2.951	-14.635
20.308	2.887	-14.409
20.206	2.826	-14.186
20.099	2.762	-13.965
19.99	2.699	-13.74
19.874	2.636	-13.534
19.75	2.565	-13.307
19.647	2.5	-13.089
19.548	2.452	-12.918
19.431	2.381	-12.688
19.275	2.306	-12.434
19.12	2.24	-12.24
19.017	2.172	-12.008
18.872	2.102	-11.784
18.764	2.057	-11.638
18.632	1.993	-11.428
18.495	1.924	-11.208
18.354	1.862	-11.024
18.206	1.792	-10.812
18.043	1.729	-10.633
17.906	1.66	-10.418
17.766	1.597	-10.215
17.602	1.543	-10.064
17.45	1.479	-9.867
17.278	1.414	-9.686
17.121	1.352	-9.499
16.971	1.295	-9.339
16.783	1.231	-9.163
16.612	1.172	-9
16.457	1.108	-8.806
16.276	1.051	-8.654
16.115	0.99	-8.477
15.906	0.93	-8.325
15.727	0.872	-8.166
15.556	0.814	-8.011
15.348	0.754	-7.865
15.169	0.697	-7.718
14.949	0.641	-7.581
14.748	0.585	-7.447
14.534	0.529	-7.315
14.321	0.471	-7.187
14.127	0.426	-7.089
13.913	0.369	-6.967
13.687	0.315	-6.858
13.456	0.261	-6.748
13.228	0.213	-6.661
13	0.163	-6.564
12.768	0.11	-6.469
12.538	0.06	-6.374
12.322	0.017	-6.3
12.086	-0.024	-6.219
11.846	-0.07	-6.153
11.617	-0.118	-6.068
11.378	-0.163	-6.008
11.133	-0.207	-5.942
10.913	-0.251	-5.869
10.67	-0.295	-5.807
10.424	-0.337	-5.762
8.235	-0.699	-5.363
7.993	-0.743	-5.324
7.765	-0.78	-5.286
7.507	-0.815	-5.266
7.267	-0.852	-5.239
7.013	-0.889	-5.224
6.767	-0.925	-5.206
6.513	-0.959	-5.191
6.258	-0.995	-5.175
6.018	-1.03	-5.154
5.762	-1.062	-5.152
5.508	-1.094	-5.138
5.243	-1.13	-5.131
5.001	-1.166	-5.115
4.743	-1.199	-5.111
4.513	-1.224	-5.125
4.251	-1.257	-5.123
3.963	-1.293	-5.115
3.754	-1.318	-5.129
3.48	-1.352	-5.133
3.231	-1.379	-5.154
2.975	-1.41	-5.158
2.687	-1.444	-5.164
2.483	-1.465	-5.179
2.216	-1.499	-5.185
1.965	-1.519	-5.22
1.708	-1.548	-5.237
1.46	-1.575	-5.251
1.212	-1.6	-5.274
0.958	-1.625	-5.309
0.722	-1.646	-5.338
0.493	-1.665	-5.375
0.23	-1.691	-5.408
-0.024	-1.718	-5.439
-0.261	-1.74	-5.46
-0.529	-1.759	-5.53
-0.783	-1.791	-5.535
-0.998	-1.805	-5.594
-1.237	-1.818	-5.659
-1.479	-1.835	-5.721
-1.74	-1.857	-5.764
-1.972	-1.873	-5.816
-2.209	-1.888	-5.882
-2.445	-1.903	-5.95
-2.686	-1.915	-6.031
-2.94	-1.935	-6.068
-3.167	-1.947	-6.151
-3.411	-1.963	-6.217
-3.646	-1.975	-6.279
-3.886	-1.99	-6.351
-4.122	-2.001	-6.434
-4.352	-2.012	-6.502
-4.581	-2.014	-6.61
-4.807	-2.024	-6.705
-5.042	-2.028	-6.812
-5.288	-2.037	-6.897
-5.526	-2.045	-6.99
-5.758	-2.059	-7.071
-5.975	-2.055	-7.205
-6.194	-2.053	-7.329
-6.44	-2.062	-7.426
-6.67	-2.06	-7.557
-6.757	-2.061	-7.602
-6.963	-2.057	-7.73
-7.098	-2.06	-7.79
-7.331	-2.053	-7.946
-7.402	-2.045	-8
-7.557	-2.051	-8.076
-7.784	-2.051	-8.2
-8	-2.044	-8.332
-8.071	-2.041	-8.386
-8.249	-2.027	-8.547
-8.506	-2.031	-8.67
-8.692	-2.022	-8.81
-8.895	-2.008	-8.965
-9.103	-2.001	-9.12
-9.329	-1.997	-9.26
-9.533	-1.989	-9.403
-9.747	-1.981	-9.548
-9.924	-1.969	-9.703
-10.106	-1.95	-9.877
-10.28	-1.934	-10.045
-10.515	-1.933	-10.178
-10.687	-1.918	-10.331
-10.855	-1.899	-10.509
-11.041	-1.875	-10.706
-11.223	-1.859	-10.873
-11.401	-1.837	-11.067
-11.579	-1.822	-11.234
-11.727	-1.801	-11.398
-11.897	-1.78	-11.584
-12.07	-1.763	-11.754
-12.232	-1.735	-11.962
-12.4	-1.713	-12.14
-12.551	-1.688	-12.331
-12.702	-1.659	-12.533
-12.846	-1.626	-12.757
-12.986	-1.596	-12.968
-13.145	-1.579	-13.129
-13.284	-1.538	-13.367
-13.453	-1.495	-13.646
-13.551	-1.475	-13.782
-13.693	-1.441	-14.016
-13.732	-1.426	-14.093
-13.844	-1.388	-14.314
-13.956	-1.352	-14.543
-14.07	-1.313	-14.767
-14.196	-1.277	-14.984
-14.301	-1.24	-15.208
-14.379	-1.193	-15.441
-14.48	-1.152	-15.682
-14.558	-1.11	-15.904
-14.651	-1.071	-16.132
-14.713	-1.026	-16.362
-14.802	-0.983	-16.606
-14.893	-0.942	-16.834
-14.964	-0.897	-17.062
-15.035	-0.853	-17.293
-15.092	-0.804	-17.54
-15.158	-0.755	-17.78
-15.225	-0.711	-18.013
-15.279	-0.662	-18.245
-15.333	-0.615	-18.479
-15.375	-0.562	-18.719
-15.426	-0.514	-18.97
-15.468	-0.465	-19.206
-15.515	-0.414	-19.449
-15.573	-0.368	-19.68
-15.589	-0.314	-19.92
-15.628	-0.26	-20.182
-15.63	-0.203	-20.43
-15.658	-0.151	-20.669
-15.688	-0.098	-20.912
-15.549	0.72	-24.419
-15.517	0.785	-24.679
-15.483	0.842	-24.906
-15.433	0.903	-25.133
-15.406	0.959	-25.376
-15.351	1.023	-25.617
-15.279	1.087	-25.846
-15.244	1.154	-26.115
-15.207	1.215	-26.342
-15.141	1.277	-26.574
-15.064	1.334	-26.789
-14.992	1.396	-27.014
-14.932	1.458	-27.246
-14.876	1.517	-27.48
-14.794	1.582	-27.715
-14.717	1.642	-27.944
-14.634	1.704	-28.173
-14.558	1.764	-28.393
-14.476	1.832	-28.626
-14.388	1.902	-28.858
-14.318	1.962	-29.084
-14.219	2.03	-29.314
-14.127	2.092	-29.546
-14.043	2.155	-29.777
-13.949	2.216	-29.988
-13.857	2.279	-30.223
-13.76	2.342	-30.448
-13.675	2.406	-30.674
-13.59	2.465	-30.896
-13.427	2.538	-31.105
-13.283	2.616	-31.383
-13.187	2.667	-31.543
-13.07	2.73	-31.764
-12.966	2.795	-31.991
-12.858	2.858	-32.207
-12.804	2.887	-32.297
-12.684	2.952	-32.517
-12.604	2.99	-32.643
-12.512	3.048	-32.846
-12.391	3.114	-33.068
-12.327	3.153	-33.199
-12.192	3.212	-33.381
-12.06	3.279	-33.594
-11.938	3.344	-33.817
-11.885	3.378	-33.939
-11.704	3.451	-34.161
-11.553	3.538	-34.458
-11.402	3.598	-34.634
-11.274	3.668	-34.864
-11.113	3.724	-35.025
-10.971	3.79	-35.229
-10.83	3.858	-35.443
-10.676	3.92	-35.631
-10.526	3.982	-35.815
-10.36	4.044	-35.992
-10.203	4.108	-36.187
-10.04	4.166	-36.352
-9.883	4.226	-36.524
-9.664	4.277	-36.632
-9.546	4.315	-36.731
-9.313	4.352	-36.765
-9.061	4.389	-36.786
-8.817	4.42	-36.791
-8.581	4.457	-36.816
-8.317	4.49	-36.818
-8.058	4.523	-36.83
-7.811	4.557	-36.837
-7.565	4.59	-36.841
-7.3	4.619	-36.821
-7.056	4.65	-36.823
-6.885	4.662	-36.795
-6.63	4.695	-36.786
-6.38	4.726	-36.782
-6.122	4.753	-36.763
-5.849	4.784	-36.75
-5.599	4.813	-36.74
-5.338	4.844	-36.729
-5.051	4.879	-36.727
-4.842	4.898	-36.71
-4.616	4.925	-36.699
-4.226	4.968	-36.687
-3.928	4.997	-36.672
-3.672	5.009	-36.593
-3.441	4.997	-36.382
-3.393	4.943	-36.132
-2.906	5.009	-36.146
-2.859	4.964	-35.925
-3.263	4.906	-35.893
-2.492	4.887	-35.401
-2.541	4.79	-35.007
-2.817	4.701	-34.765
-2.985	4.689	-34.804
-2.812	4.652	-34.549
-2.972	4.565	-34.262
-2.988	4.507	-34.021
-3.012	4.447	-33.776
-2.97	4.403	-33.555
-3.151	4.308	-33.247
-3.125	4.259	-33.016
-3.198	4.191	-32.761
-3.287	4.11	-32.457
-3.246	4.064	-32.248
-3.368	3.986	-31.971
-3.428	3.909	-31.667
-3.525	3.798	-31.238
-3.627	3.7	-30.866
-3.787	3.581	-30.443
-3.718	3.525	-30.161
-3.855	3.396	-29.673
-3.794	3.351	-29.459
-3.71	3.285	-29.12
-3.656	3.223	-28.819
-3.672	3.135	-28.455
-3.74	3.032	-28.037
-3.751	2.946	-27.67
-3.795	2.849	-27.278
17.203	4.958	-25.067
17.226	5.034	-25.381
17.318	5.104	-25.632
17.418	5.171	-25.875
17.47	5.243	-26.161
17.475	5.322	-26.492
17.516	5.396	-26.793
17.435	5.481	-27.208
16.254	5.991	-30.047
16.224	6.072	-30.412
16.35	6.136	-30.631
16.317	6.155	-30.725
16.338	6.339	-31.139
16.209	6.345	-31.541
16.339	6.403	-31.684
16.47	6.504	-32.021
16.262	6.606	-32.712
16.31	6.651	-32.875
16.666	6.715	-32.967
16.649	6.779	-33.245
16.682	6.835	-33.475
16.739	6.895	-33.697
16.751	6.965	-34.003
16.696	7.015	-34.242
16.623	7.071	-34.52
16.721	7.131	-34.703
19.108	7.691	-35.803
19.356	7.726	-35.808
19.612	7.749	-35.79
19.874	7.786	-35.82
20.198	7.841	-35.865
20.44	7.872	-35.868
20.686	7.896	-35.877
20.943	7.926	-35.879
21.192	7.954	-35.874
21.416	7.969	-35.822
21.67	7.992	-35.79
21.913	8.007	-35.728
22.166	8.035	-35.707
22.368	8.03	-35.571
22.597	8.034	-35.438
22.746	8.024	-35.333
22.851	7.985	-35.114
22.964	7.946	-34.878
23.218	7.952	-34.758
23.32	7.914	-34.547
23.454	7.879	-34.322
23.629	7.86	-34.154
23.738	7.815	-33.874
23.846	7.77	-33.604
24.06	7.766	-33.502
24.183	7.739	-33.335
24.276	7.697	-33.066
24.361	7.672	-32.901
24.411	7.648	-32.802
24.483	7.625	-32.676
24.546	7.586	-32.439
24.594	7.548	-32.232
24.724	7.515	-32.058
24.838	7.472	-31.828
24.863	7.459	-31.748
24.933	7.422	-31.516
25.032	7.383	-31.282
25.149	7.335	-31.041
25.234	7.288	-30.815
25.328	7.246	-30.593
25.377	7.213	-30.354
25.482	7.158	-30.128
25.533	7.118	-29.885
25.666	7.054	-29.619
25.699	7.027	-29.456
25.768	6.978	-29.198
25.828	6.93	-28.958
25.896	6.879	-28.71
25.973	6.819	-28.426
26.024	6.769	-28.168
26.083	6.709	-27.888
26.053	6.663	-27.664
26.081	6.601	-27.387
26.165	6.537	-27.088
26.172	6.486	-26.846
26.079	6.432	-26.646
26.147	6.376	-26.376
26.04	6.312	-26.148
25.958	6.237	-25.9
25.405	6.105	-25.677
25.111	6.043	-25.59
24.738	5.981	-25.477
24.568	5.913	-25.224
24.478	5.865	-25.065
24.353	5.805	-24.83
24.39	5.739	-24.566
24.256	5.688	-24.389
24.227	5.636	-24.195
24.153	5.57	-23.962
23.917	5.52	-23.888
23.752	5.446	-23.705
23.407	5.382	-23.674
23.237	5.317	-23.603
22.825	5.264	-23.634
22.538	5.231	-23.577
22.224	5.183	-23.558
21.913	5.121	-23.555
21.812	5.104	-23.558
21.487	5.069	-23.54
21.226	5.038	-23.499
-4.472	2.133	-26.038
-4	1.972	-25.086
-3.879	1.915	-24.769
-3.843	1.851	-24.47
-3.808	1.783	-24.165
-3.795	1.711	-23.84
-3.724	1.658	-23.575
-3.706	1.583	-23.251
-3.641	1.503	-22.858
-3.547	1.473	-22.688
-3.356	1.435	-22.417
-3.126	1.431	-22.226
-2.938	1.423	-22.136
-2.645	1.444	-22.066
-2.436	1.43	-21.898
-2.158	1.444	-21.803
-1.948	1.446	-21.704
-1.716	1.459	-21.63
-1.478	1.478	-21.586
-1.244	1.493	-21.524
-1.007	1.507	-21.459
-0.757	1.534	-21.436
-0.505	1.551	-21.376
-0.249	1.581	-21.366
0	1.611	-21.36
0.254	1.641	-21.351
0.491	1.655	-21.276
0.736	1.673	-21.223
0.98	1.689	-21.172
1.217	1.703	-21.098
1.471	1.729	-21.072
1.718	1.752	-21.044
1.967	1.778	-21.006
2.192	1.779	-20.899
2.43	1.792	-20.821
2.685	1.812	-20.781
2.93	1.837	-20.748
3.166	1.841	-20.648
3.403	1.851	-20.557
3.65	1.869	-20.521
3.914	1.902	-20.527
4.155	1.933	-20.532
4.451	1.972	-20.53
4.67	1.994	-20.503
4.956	2.009	-20.447
5.173	2.033	-20.425
5.444	2.061	-20.392
5.677	2.093	-20.385
5.962	2.115	-20.336
6.233	2.157	-20.375
6.446	2.174	-20.354
6.802	2.219	-20.367
7.054	2.264	-20.423
7.294	2.291	-20.441
7.536	2.34	-20.494
7.799	2.386	-20.534
8.049	2.42	-20.566
8.275	2.467	-20.633
8.538	2.494	-20.656
8.762	2.539	-20.702
9.03	2.576	-20.747
17.636	3.193	-18.665
17.98	3.217	-18.608
18.276	3.242	-18.559
18.44	3.263	-18.549
18.937	3.29	-18.484
19.268	3.326	-18.44
19.455	3.348	-18.404
19.734	3.376	-18.345
19.983	3.382	-18.246
20.206	3.384	-18.137
20.425	3.378	-17.988
20.646	3.375	-17.851
20.864	3.371	-17.711
21.044	3.356	-17.56
21.182	3.301	-17.241
21.245	3.251	-16.983
21.227	3.19	-16.733
21.135	3.111	-16.443
21.059	3.031	-16.129
21.02	2.969	-15.875
20.909	2.878	-15.529
20.749	2.786	-15.217
20.64	2.709	-14.949
20.478	2.63	-14.696
20.369	2.563	-14.475
20.269	2.5	-14.263
20.157	2.436	-14.042
20.044	2.373	-13.821
19.935	2.309	-13.598
19.818	2.245	-13.383
19.71	2.179	-13.154
19.587	2.114	-12.93
19.471	2.053	-12.724
19.369	1.997	-12.529
19.238	1.918	-12.271
19.106	1.85	-12.048
18.967	1.785	-11.845
18.827	1.732	-11.691
18.709	1.664	-11.458
18.566	1.597	-11.253
18.412	1.539	-11.079
18.267	1.474	-10.889
18.135	1.403	-10.661
18.006	1.338	-10.456
17.808	1.275	-10.29
17.668	1.217	-10.114
17.509	1.155	-9.932
17.326	1.093	-9.757
17.172	1.028	-9.561
17.018	0.972	-9.402
16.85	0.911	-9.227
16.675	0.847	-9.05
16.509	0.784	-8.875
16.332	0.73	-8.725
16.146	0.662	-8.538
15.98	0.606	-8.376
15.793	0.549	-8.229
15.608	0.488	-8.073
15.407	0.433	-7.93
15.209	0.375	-7.79
15.022	0.319	-7.644
14.805	0.261	-7.507
14.612	0.205	-7.371
14.383	0.148	-7.247
14.181	0.096	-7.141
13.956	0.043	-7.025
13.726	-0.003	-6.916
13.501	-0.057	-6.812
13.278	-0.104	-6.713
13.047	-0.155	-6.62
12.814	-0.207	-6.523
12.573	-0.261	-6.421
12.362	-0.303	-6.353
12.133	-0.35	-6.279
11.893	-0.394	-6.213
11.657	-0.445	-6.126
11.417	-0.488	-6.062
11.185	-0.532	-5.994
10.952	-0.578	-5.927
10.711	-0.623	-5.863
10.475	-0.661	-5.818
10.235	-0.707	-5.754
8.554	-0.988	-5.439
8.287	-1.031	-5.402
8.05	-1.072	-5.363
7.829	-1.107	-5.332
7.555	-1.143	-5.309
7.311	-1.182	-5.28
7.062	-1.216	-5.255
6.81	-1.255	-5.237
6.562	-1.291	-5.216
6.32	-1.324	-5.202
6.062	-1.355	-5.206
5.816	-1.387	-5.2
5.545	-1.424	-5.193
5.291	-1.457	-5.189
5.047	-1.49	-5.181
4.782	-1.521	-5.185
4.534	-1.556	-5.171
4.265	-1.589	-5.169
4.015	-1.624	-5.162
3.781	-1.652	-5.164
3.518	-1.68	-5.181
3.267	-1.707	-5.189
3.011	-1.737	-5.202
2.734	-1.775	-5.195
2.484	-1.801	-5.204
2.246	-1.828	-5.218
2.002	-1.851	-5.255
1.747	-1.873	-5.295
1.504	-1.9	-5.319
1.245	-1.927	-5.336
0.986	-1.955	-5.353
0.755	-1.974	-5.388
0.517	-1.993	-5.441
0.245	-2.022	-5.468
0.011	-2.041	-5.508
-0.239	-2.073	-5.504
-0.482	-2.088	-5.586
-0.725	-2.111	-5.617
-0.964	-2.129	-5.661
-1.205	-2.149	-5.708
-1.459	-2.168	-5.758
-1.703	-2.188	-5.797
-1.932	-2.206	-5.853
-2.173	-2.217	-5.925
-2.41	-2.233	-5.996
-2.648	-2.244	-6.072
-2.906	-2.266	-6.12
-3.142	-2.278	-6.188
-3.378	-2.297	-6.244
-3.612	-2.307	-6.326
-3.846	-2.318	-6.401
-4.081	-2.327	-6.494
-4.317	-2.34	-6.556
-4.544	-2.344	-6.661
-4.776	-2.349	-6.767
-5.02	-2.361	-6.85
-5.259	-2.369	-6.949
-5.491	-2.375	-7.038
-5.721	-2.383	-7.129
-5.94	-2.379	-7.267
-6.163	-2.382	-7.373
-6.399	-2.39	-7.472
-6.634	-2.382	-7.623
-6.721	-2.386	-7.664
-6.947	-2.388	-7.778
-7.069	-2.391	-7.833
-7.29	-2.386	-7.972
-7.41	-2.378	-8.051
-7.644	-2.381	-8.177
-7.844	-2.376	-8.309
-8.042	-2.369	-8.445
-8.235	-2.358	-8.605
-8.472	-2.359	-8.727
-8.674	-2.346	-8.878
-8.878	-2.339	-9.029
-9.091	-2.334	-9.167
-9.312	-2.329	-9.308
-9.508	-2.318	-9.456
-9.715	-2.309	-9.604
-9.912	-2.297	-9.773
-10.092	-2.282	-9.928
-10.28	-2.269	-10.092
-10.493	-2.264	-10.23
-10.66	-2.246	-10.394
-10.838	-2.225	-10.576
-11.01	-2.208	-10.751
-11.206	-2.192	-10.917
-11.389	-2.173	-11.101
-11.556	-2.154	-11.277
-11.706	-2.129	-11.459
-11.874	-2.107	-11.645
-12.054	-2.094	-11.804
-12.223	-2.066	-12.002
-12.4	-2.049	-12.174
-12.587	-2.027	-12.353
-12.706	-1.994	-12.575
-12.825	-1.96	-12.795
-12.961	-1.921	-13.031
-13.114	-1.901	-13.214
-13.247	-1.864	-13.437
-13.394	-1.836	-13.629
-13.53	-1.808	-13.824
-13.604	-1.789	-13.948
-13.721	-1.753	-14.162
-13.824	-1.717	-14.386
-13.929	-1.674	-14.62
-14.045	-1.637	-14.856
-14.15	-1.6	-15.062
-14.255	-1.562	-15.293
-14.378	-1.524	-15.518
-14.457	-1.485	-15.728
-14.535	-1.434	-15.979
-14.631	-1.394	-16.215
-14.697	-1.35	-16.444
-14.779	-1.307	-16.674
-14.871	-1.265	-16.907
-14.93	-1.219	-17.136
-15.008	-1.176	-17.37
-15.066	-1.127	-17.606
-15.143	-1.082	-17.847
-15.213	-1.04	-18.075
-15.251	-0.987	-18.315
-15.316	-0.944	-18.539
-15.372	-0.895	-18.787
-15.421	-0.843	-19.032
-15.472	-0.794	-19.275
-15.505	-0.743	-19.517
-15.546	-0.694	-19.747
-15.565	-0.637	-20.003
-15.598	-0.584	-20.246
-15.619	-0.531	-20.492
-15.644	-0.479	-20.732
-15.665	-0.423	-20.98
-15.688	-0.368	-21.235
-15.603	0.278	-24.025
-15.558	0.339	-24.258
-15.531	0.396	-24.498
-15.507	0.463	-24.762
-15.469	0.518	-24.983
-15.429	0.578	-25.219
-15.412	0.638	-25.466
-15.364	0.699	-25.705
-15.29	0.762	-25.933
-15.232	0.828	-26.187
-15.174	0.884	-26.404
-15.104	0.949	-26.646
-15.049	1.01	-26.879
-14.988	1.068	-27.1
-14.926	1.135	-27.34
-14.872	1.197	-27.574
-14.805	1.259	-27.811
-14.711	1.321	-28.033
-14.627	1.382	-28.256
-14.547	1.444	-28.485
-14.475	1.505	-28.71
-14.388	1.575	-28.948
-14.332	1.629	-29.156
-14.243	1.704	-29.402
-14.136	1.766	-29.619
-14.05	1.826	-29.857
-13.925	1.893	-30.075
-13.826	1.959	-30.303
-13.741	2.02	-30.524
-13.64	2.083	-30.749
-13.551	2.149	-30.977
-13.443	2.216	-31.205
-13.309	2.278	-31.41
-13.212	2.334	-31.606
-13.071	2.404	-31.849
-12.95	2.469	-32.074
-12.835	2.531	-32.281
-12.722	2.595	-32.492
-12.62	2.665	-32.724
-12.536	2.724	-32.935
-12.404	2.784	-33.128
-12.312	2.832	-33.3
-12.171	2.889	-33.47
-12.14	2.91	-33.532
-12.055	2.957	-33.702
-12.005	2.986	-33.799
-11.876	3.051	-34.012
-11.797	3.092	-34.143
-11.656	3.153	-34.324
-11.537	3.223	-34.568
-11.405	3.284	-34.758
-11.265	3.346	-34.958
-11.092	3.407	-35.121
-10.96	3.473	-35.342
-10.817	3.538	-35.548
-10.677	3.596	-35.723
-10.51	3.658	-35.904
-10.343	3.722	-36.088
-10.189	3.782	-36.269
-10.029	3.844	-36.453
-9.84	3.898	-36.582
-9.596	3.953	-36.69
-9.506	3.98	-36.759
-9.255	4.017	-36.777
-9.022	4.054	-36.812
-8.767	4.089	-36.828
-8.519	4.126	-36.843
-8.263	4.162	-36.853
-7.992	4.191	-36.839
-7.765	4.224	-36.858
-7.488	4.25	-36.825
-7.224	4.277	-36.811
-6.961	4.302	-36.784
-6.604	4.35	-36.777
-6.355	4.381	-36.77
-6.107	4.406	-36.749
-5.843	4.439	-36.745
-5.613	4.459	-36.724
-5.291	4.503	-36.734
-5.055	4.536	-36.74
-4.801	4.561	-36.722
-4.662	4.575	-36.708
-4.273	4.621	-36.699
-3.996	4.633	-36.625
-3.698	4.639	-36.517
-3.641	4.594	-36.24
-3.407	4.538	-36.178
-3.252	4.577	-35.957
-3.156	4.528	-35.689
-3.098	4.414	-35.163
-3.123	4.337	-34.843
-3.132	4.288	-34.637
-3.189	4.203	-34.297
-3.184	4.143	-34.04
-3.189	4.087	-33.796
-3.174	4.033	-33.564
-3.226	3.963	-33.286
-3.238	3.907	-33.048
-3.345	3.829	-32.765
-3.322	3.776	-32.528
-3.381	3.711	-32.276
-3.479	3.628	-31.975
-3.556	3.556	-31.697
-3.557	3.531	-31.596
-3.651	3.427	-31.191
-3.647	3.352	-30.866
-3.775	3.227	-30.401
-3.838	3.144	-30.076
-3.876	3.05	-29.688
-3.802	2.997	-29.41
-3.716	2.946	-29.144
-3.704	2.868	-28.805
-3.75	2.77	-28.409
-3.807	2.671	-28
-3.815	2.585	-27.641
-3.924	2.465	-27.185
17.255	4.635	-25.131
17.255	4.714	-25.467
17.381	4.778	-25.682
17.464	4.848	-25.945
17.556	4.918	-26.192
17.596	4.991	-26.489
17.626	5.067	-26.799
17.55	5.152	-27.21
16.581	5.64	-29.843
16.643	5.712	-30.12
16.594	5.795	-30.509
16.45	5.886	-30.984
16.496	5.985	-31.387
16.564	6.049	-31.626
16.648	6.157	-31.947
16.619	6.219	-32.333
16.676	6.279	-32.563
16.527	6.362	-32.882
16.425	6.341	-32.926
16.832	6.473	-33.264
16.914	6.539	-33.498
16.962	6.612	-33.801
16.928	6.663	-34.037
16.964	6.715	-34.258
16.775	6.773	-34.559
19.167	7.368	-35.833
19.417	7.397	-35.838
19.665	7.426	-35.851
19.904	7.462	-35.886
20.166	7.495	-35.868
20.231	7.507	-35.868
20.459	7.534	-35.882
20.718	7.567	-35.907
20.975	7.594	-35.897
21.222	7.625	-35.902
21.448	7.641	-35.865
21.702	7.662	-35.829
21.952	7.685	-35.787
22.203	7.708	-35.764
22.422	7.718	-35.696
22.65	7.726	-35.594
22.864	7.718	-35.443
23.018	7.695	-35.261
23.091	7.656	-35.05
23.346	7.66	-34.933
23.412	7.594	-34.616
23.602	7.594	-34.508
23.768	7.573	-34.324
23.871	7.522	-34.024
24.048	7.509	-33.879
24.178	7.478	-33.681
24.279	7.43	-33.424
24.416	7.395	-33.215
24.506	7.36	-32.999
24.582	7.319	-32.758
24.731	7.28	-32.49
24.817	7.246	-32.299
24.861	7.234	-32.242
24.987	7.189	-32.014
25.056	7.166	-31.863
25.111	7.135	-31.633
25.225	7.098	-31.415
25.307	7.046	-31.174
25.337	6.99	-30.93
25.46	6.934	-30.698
25.524	6.899	-30.463
25.637	6.852	-30.218
25.698	6.816	-29.981
25.793	6.775	-29.782
25.852	6.727	-29.531
25.9	6.68	-29.299
25.984	6.628	-29.059
26.048	6.575	-28.827
26.06	6.56	-28.748
26.12	6.502	-28.455
26.167	6.453	-28.206
26.21	6.393	-27.938
26.219	6.337	-27.684
26.224	6.283	-27.434
26.265	6.229	-27.171
26.341	6.169	-26.884
26.194	6.115	-26.698
26.279	6.06	-26.425
26.218	6.002	-26.21
26.104	5.932	-25.965
25.784	5.838	-25.747
25.242	5.716	-25.591
24.791	5.644	-25.427
24.682	5.594	-25.273
24.604	5.545	-25.102
24.529	5.491	-24.911
24.512	5.425	-24.615
24.453	5.375	-24.403
24.399	5.295	-24.128
24.281	5.237	-23.946
24.131	5.181	-23.816
23.918	5.082	-23.654
23.574	5.016	-23.64
23.352	4.976	-23.637
22.988	4.923	-23.646
22.655	4.894	-23.591
22.363	4.879	-23.579
22.004	4.827	-23.569
21.815	4.79	-23.538
21.587	4.747	-23.541
21.305	4.722	-23.514
-4.11	1.698	-25.443
-4.085	1.669	-25.304
-4.029	1.611	-25.03
-3.959	1.56	-24.765
-3.897	1.501	-24.475
-3.816	1.444	-24.188
-3.783	1.377	-23.878
-3.705	1.322	-23.607
-3.689	1.252	-23.292
-3.634	1.162	-22.871
-3.564	1.126	-22.69
-3.411	1.106	-22.498
-3.169	1.086	-22.26
-2.969	1.076	-22.138
-2.746	1.078	-22.033
-2.492	1.092	-21.948
-2.43	1.089	-21.9
-2.192	1.104	-21.836
-1.928	1.108	-21.717
-1.699	1.118	-21.63
-1.46	1.135	-21.573
-1.216	1.157	-21.547
-0.981	1.172	-21.483
-0.737	1.186	-21.415
-0.483	1.215	-21.401
-0.23	1.242	-21.372
0.02	1.272	-21.368
0.278	1.303	-21.354
0.515	1.312	-21.278
0.759	1.332	-21.228
0.998	1.343	-21.152
1.243	1.365	-21.11
1.492	1.389	-21.081
1.739	1.412	-21.041
1.979	1.427	-20.978
2.207	1.429	-20.87
2.434	1.431	-20.757
2.699	1.468	-20.766
2.944	1.485	-20.709
3.184	1.497	-20.64
3.42	1.507	-20.554
3.648	1.51	-20.45
3.926	1.552	-20.486
4.168	1.582	-20.486
4.432	1.624	-20.514
4.691	1.646	-20.477
4.927	1.656	-20.397
5.189	1.686	-20.377
5.446	1.713	-20.362
5.708	1.749	-20.368
5.991	1.771	-20.325
6.217	1.807	-20.352
6.471	1.835	-20.345
6.734	1.868	-20.354
7.073	1.914	-20.382
7.362	1.966	-20.434
7.606	1.998	-20.476
7.841	2.044	-20.532
8.094	2.087	-20.578
8.348	2.117	-20.602
8.596	2.156	-20.631
8.856	2.2	-20.677
9.115	2.228	-20.672
9.314	2.269	-20.718
9.591	2.313	-20.774
17.145	2.858	-18.892
17.417	2.851	-18.766
17.733	2.863	-18.655
18.028	2.881	-18.58
18.293	2.897	-18.554
18.597	2.934	-18.564
18.833	2.964	-18.562
19.077	2.982	-18.48
19.309	2.978	-18.412
19.396	2.988	-18.401
19.734	3.034	-18.356
19.965	3.039	-18.255
20.192	3.042	-18.14
20.408	3.039	-18.009
20.625	3.032	-17.864
20.841	3.029	-17.728
21.059	3.02	-17.588
21.154	2.984	-17.374
21.238	2.974	-17.284
21.268	2.925	-17.062
21.267	2.866	-16.806
21.19	2.794	-16.522
21.136	2.72	-16.239
21.082	2.646	-15.947
20.974	2.557	-15.603
20.811	2.461	-15.283
20.718	2.391	-15.022
20.54	2.307	-14.763
20.434	2.244	-14.545
20.326	2.183	-14.34
20.227	2.119	-14.115
20.119	2.055	-13.881
20.021	1.991	-13.66
19.907	1.922	-13.431
19.804	1.861	-13.216
19.685	1.794	-12.982
19.562	1.733	-12.775
19.432	1.67	-12.575
19.307	1.598	-12.354
19.151	1.527	-12.128
19.032	1.469	-11.939
18.877	1.404	-11.749
18.738	1.336	-11.535
18.574	1.274	-11.359
18.439	1.209	-11.145
18.316	1.149	-10.943
18.218	1.077	-10.695
18.062	1.015	-10.517
17.892	0.957	-10.354
17.721	0.896	-10.174
17.558	0.829	-9.987
17.382	0.768	-9.819
17.227	0.707	-9.631
17.055	0.645	-9.461
16.892	0.584	-9.282
16.728	0.523	-9.118
16.56	0.461	-8.929
16.379	0.4	-8.771
16.208	0.345	-8.613
16.023	0.284	-8.446
15.851	0.224	-8.283
15.667	0.165	-8.125
15.474	0.111	-7.988
15.262	0.052	-7.853
15.061	-0.001	-7.708
14.86	-0.057	-7.569
14.657	-0.114	-7.43
14.433	-0.165	-7.319
14.213	-0.222	-7.197
13.993	-0.277	-7.075
13.772	-0.33	-6.972
13.557	-0.38	-6.862
13.325	-0.43	-6.765
13.086	-0.484	-6.666
12.857	-0.532	-6.574
12.629	-0.585	-6.481
12.409	-0.63	-6.405
12.179	-0.675	-6.328
11.943	-0.722	-6.25
11.703	-0.77	-6.171
11.467	-0.812	-6.116
11.235	-0.86	-6.041
10.998	-0.903	-5.983
10.755	-0.946	-5.921
10.521	-0.989	-5.863
10.267	-1.034	-5.812
10.03	-1.076	-5.766
9.801	-1.117	-5.71
9.562	-1.154	-5.669
9.318	-1.199	-5.611
9.078	-1.239	-5.565
8.832	-1.277	-5.526
8.59	-1.318	-5.491
8.334	-1.356	-5.458
8.096	-1.394	-5.431
7.869	-1.43	-5.394
7.6	-1.472	-5.361
7.354	-1.507	-5.33
7.108	-1.547	-5.305
6.847	-1.582	-5.295
6.608	-1.614	-5.28
6.37	-1.65	-5.259
6.109	-1.682	-5.262
5.857	-1.717	-5.239
5.599	-1.75	-5.239
5.346	-1.783	-5.231
5.086	-1.82	-5.224
4.852	-1.852	-5.208
4.6	-1.886	-5.195
4.337	-1.918	-5.197
4.071	-1.949	-5.204
3.805	-1.98	-5.212
3.559	-2.006	-5.235
3.307	-2.033	-5.251
3.054	-2.062	-5.268
2.783	-2.094	-5.276
2.524	-2.123	-5.297
2.281	-2.15	-5.317
2.035	-2.175	-5.346
1.791	-2.2	-5.369
1.538	-2.227	-5.377
1.271	-2.256	-5.394
1.015	-2.281	-5.421
0.781	-2.307	-5.439
0.533	-2.329	-5.472
0.288	-2.353	-5.495
0.048	-2.37	-5.551
-0.209	-2.398	-5.58
-0.44	-2.414	-5.64
-0.678	-2.432	-5.683
-0.928	-2.456	-5.725
-1.175	-2.472	-5.772
-1.427	-2.495	-5.81
-1.674	-2.519	-5.851
-1.902	-2.53	-5.913
-2.138	-2.548	-5.977
-2.377	-2.561	-6.041
-2.618	-2.576	-6.113
-2.869	-2.595	-6.159
-3.106	-2.611	-6.227
-3.337	-2.623	-6.291
-3.571	-2.632	-6.391
-3.802	-2.644	-6.455
-4.048	-2.651	-6.552
-4.284	-2.665	-6.63
-4.513	-2.674	-6.719
-4.751	-2.678	-6.819
-4.978	-2.686	-6.907
-5.218	-2.701	-6.982
-5.446	-2.703	-7.094
-5.677	-2.708	-7.189
-5.911	-2.708	-7.313
-6.128	-2.71	-7.422
-6.359	-2.714	-7.53
-6.593	-2.709	-7.677
-6.69	-2.711	-7.724
-6.818	-2.715	-7.774
-7.038	-2.717	-7.884
-7.259	-2.715	-8.011
-7.47	-2.71	-8.148
-7.606	-2.708	-8.232
-7.823	-2.706	-8.368
-8.016	-2.698	-8.503
-8.21	-2.684	-8.661
-8.452	-2.687	-8.781
-8.65	-2.675	-8.944
-8.855	-2.668	-9.088
-9.068	-2.664	-9.221
-9.242	-2.658	-9.332
-9.475	-2.644	-9.525
-9.686	-2.637	-9.676
-9.891	-2.622	-9.837
-10.08	-2.615	-9.972
-10.254	-2.594	-10.15
-10.452	-2.584	-10.301
-10.638	-2.573	-10.46
-10.823	-2.554	-10.631
-11.001	-2.539	-10.803
-11.176	-2.519	-10.982
-11.353	-2.504	-11.137
-11.522	-2.482	-11.332
-11.676	-2.459	-11.513
-11.841	-2.434	-11.699
-12	-2.41	-11.89
-12.176	-2.39	-12.079
-12.353	-2.37	-12.256
-12.527	-2.347	-12.443
-12.688	-2.32	-12.639
-12.844	-2.297	-12.827
-12.97	-2.255	-13.069
-13.09	-2.226	-13.278
-13.209	-2.187	-13.511
-13.354	-2.162	-13.695
-13.485	-2.129	-13.911
-13.547	-2.111	-14.028
-13.662	-2.074	-14.245
-13.77	-2.036	-14.461
-13.906	-2	-14.702
-14.02	-1.964	-14.915
-14.154	-1.929	-15.137
-14.262	-1.891	-15.352
-14.365	-1.856	-15.577
-14.438	-1.811	-15.801
-14.527	-1.766	-16.037
-14.613	-1.72	-16.284
-14.68	-1.676	-16.511
-14.736	-1.629	-16.747
-14.824	-1.587	-16.981
-14.906	-1.545	-17.208
-15.002	-1.504	-17.432
-15.046	-1.454	-17.678
-15.122	-1.408	-17.914
-15.19	-1.366	-18.14
-15.234	-1.311	-18.386
-15.298	-1.271	-18.614
-15.339	-1.215	-18.865
-15.393	-1.168	-19.105
-15.449	-1.12	-19.345
-15.48	-1.067	-19.579
-15.522	-1.023	-19.802
-15.54	-0.959	-20.081
-15.579	-0.912	-20.315
-15.607	-0.858	-20.56
-15.628	-0.804	-20.809
-15.65	-0.748	-21.058
-15.669	-0.694	-21.302
-15.687	-0.644	-21.541
-15.58	-0.039	-24.095
-15.55	0.017	-24.35
-15.507	0.075	-24.582
-15.487	0.138	-24.836
-15.449	0.195	-25.061
-15.399	0.255	-25.299
-15.37	0.315	-25.542
-15.328	0.377	-25.786
-15.274	0.437	-26.015
-15.224	0.5	-26.26
-15.166	0.56	-26.481
-15.093	0.624	-26.722
-15.038	0.682	-26.951
-14.963	0.745	-27.185
-14.911	0.806	-27.411
-14.833	0.869	-27.645
-14.764	0.934	-27.884
-14.685	0.999	-28.111
-14.616	1.058	-28.332
-14.546	1.12	-28.562
-14.446	1.183	-28.79
-14.369	1.246	-29.024
-14.314	1.302	-29.231
-14.229	1.376	-29.485
-14.131	1.443	-29.724
-14.039	1.501	-29.937
-13.939	1.567	-30.164
-13.83	1.631	-30.383
-13.722	1.696	-30.601
-13.625	1.759	-30.824
-13.538	1.824	-31.052
-13.43	1.886	-31.27
-13.299	1.952	-31.495
-13.206	2.01	-31.702
-13.077	2.077	-31.92
-13.009	2.112	-32.03
-12.873	2.175	-32.233
-12.76	2.246	-32.476
-12.707	2.274	-32.577
-12.601	2.338	-32.802
-12.49	2.398	-32.997
-12.385	2.463	-33.224
-12.294	2.515	-33.392
-12.165	2.575	-33.587
-12.043	2.641	-33.808
-12.006	2.662	-33.881
-11.862	2.731	-34.102
-11.783	2.77	-34.237
-11.645	2.834	-34.439
-11.522	2.903	-34.667
-11.394	2.964	-34.864
-11.241	3.024	-35.043
-11.067	3.084	-35.208
-10.933	3.154	-35.431
-10.799	3.219	-35.64
-10.664	3.279	-35.826
-10.506	3.341	-36.012
-10.34	3.405	-36.198
-10.169	3.465	-36.368
-9.998	3.524	-36.531
-9.797	3.57	-36.633
-9.673	3.602	-36.704
-9.452	3.65	-36.779
-9.198	3.682	-36.786
-8.967	3.721	-36.83
-8.721	3.756	-36.851
-8.469	3.793	-36.86
-8.217	3.825	-36.862
-7.941	3.851	-36.832
-7.693	3.886	-36.841
-7.433	3.911	-36.812
-7.362	3.918	-36.805
-7.108	3.942	-36.782
-6.876	3.957	-36.743
-6.585	4.002	-36.761
-6.331	4.033	-36.747
-6.097	4.062	-36.736
-5.828	4.093	-36.727
-5.576	4.124	-36.727
-5.309	4.153	-36.724
-5.104	4.178	-36.731
-4.788	4.211	-36.715
-4.348	4.253	-36.66
-4.077	4.263	-36.58
-3.82	4.273	-36.433
-3.734	4.222	-36.171
-3.508	4.222	-36.047
-3.371	4.197	-35.865
-3.279	4.143	-35.583
-3.328	4.021	-35.078
-3.201	3.99	-34.88
-3.255	3.862	-34.35
-3.311	3.793	-34.083
-3.319	3.735	-33.837
-3.28	3.682	-33.587
-3.334	3.615	-33.323
-3.33	3.56	-33.082
-3.401	3.486	-32.8
-3.377	3.439	-32.588
-3.454	3.369	-32.324
-3.555	3.289	-32.04
-3.628	3.229	-31.823
-3.655	3.154	-31.5
-3.716	3.068	-31.162
-3.713	2.99	-30.832
-3.858	2.861	-30.348
-3.867	2.795	-30.066
-3.868	2.717	-29.734
-3.835	2.648	-29.415
-3.743	2.601	-29.154
-3.736	2.522	-28.811
-3.855	2.398	-28.341
-3.896	2.305	-27.951
-3.898	2.22	-27.595
-4.017	2.096	-27.126
17.291	4.313	-25.209
17.309	4.389	-25.53
17.427	4.457	-25.752
17.512	4.526	-26.008
17.627	4.592	-26.233
17.691	4.664	-26.508
17.72	4.739	-26.82
17.649	4.825	-27.228
17.581	4.91	-27.634
17.574	4.987	-27.976
17.534	5.071	-28.354
17.439	5.158	-28.784
16.83	5.297	-29.712
16.873	5.371	-30.012
16.805	5.456	-30.417
16.769	5.487	-30.574
16.71	5.543	-30.848
16.69	5.644	-31.289
16.759	5.702	-31.504
16.813	5.791	-31.865
16.845	5.861	-32.147
16.961	5.946	-32.389
16.835	6.018	-32.838
16.943	6.142	-32.99
17.008	6.118	-33.052
17.005	6.159	-33.291
17.079	6.24	-33.594
17.156	6.295	-33.824
17.122	6.345	-34.044
17.204	6.407	-34.262
17.103	6.496	-34.524
17.283	6.564	-34.797
19.478	7.065	-35.858
19.703	7.1	-35.886
19.943	7.133	-35.89
20.208	7.17	-35.893
20.492	7.205	-35.907
20.748	7.232	-35.902
21.005	7.259	-35.905
21.25	7.286	-35.902
21.484	7.309	-35.89
21.733	7.331	-35.861
21.991	7.36	-35.854
22.241	7.385	-35.831
22.467	7.399	-35.769
22.708	7.412	-35.705
22.934	7.412	-35.574
23.127	7.408	-35.441
23.305	7.381	-35.238
23.416	7.346	-35.03
23.54	7.313	-34.82
23.707	7.296	-34.648
23.87	7.273	-34.462
24.073	7.249	-34.251
24.178	7.218	-34.053
24.286	7.172	-33.776
24.392	7.129	-33.53
24.542	7.106	-33.376
24.644	7.058	-33.1
24.715	7.015	-32.862
24.868	6.978	-32.634
25.001	6.947	-32.414
25.11	6.912	-32.186
25.214	6.87	-31.957
25.258	6.829	-31.732
25.363	6.773	-31.495
25.437	6.732	-31.268
25.482	6.696	-31.034
25.575	6.647	-30.833
25.66	6.597	-30.572
25.784	6.56	-30.331
25.853	6.523	-30.09
25.942	6.475	-29.874
25.978	6.432	-29.643
26.061	6.368	-29.346
26.117	6.328	-29.159
26.163	6.279	-28.929
26.207	6.242	-28.756
26.256	6.188	-28.505
26.311	6.122	-28.226
26.337	6.072	-27.979
26.373	6.025	-27.735
26.378	5.973	-27.486
26.384	5.915	-27.23
26.488	5.857	-26.936
26.342	5.799	-26.745
26.387	5.741	-26.474
26.379	5.679	-26.21
26.277	5.617	-25.995
26.032	5.534	-25.794
25.413	5.388	-25.572
25.324	5.379	-25.562
24.965	5.33	-25.49
24.878	5.315	-25.461
24.795	5.27	-25.305
24.736	5.228	-25.149
24.684	5.173	-24.94
24.694	5.127	-24.738
24.598	5.049	-24.452
24.515	4.958	-24.125
24.388	4.896	-23.945
24.295	4.825	-23.755
24.056	4.757	-23.663
23.837	4.687	-23.576
23.43	4.635	-23.581
23.138	4.602	-23.561
22.729	4.561	-23.603
22.455	4.54	-23.587
22.079	4.49	-23.569
21.692	4.432	-23.523
21.632	4.42	-23.519
-12.501	2.065	-33.059
-12.366	2.145	-33.323
-12.237	2.211	-33.544
-12.151	2.254	-33.693
-12.017	2.317	-33.893
-11.885	2.386	-34.113
-11.762	2.455	-34.341
-11.625	2.515	-34.527
-11.495	2.581	-34.747
-11.365	2.643	-34.944
-11.226	2.705	-35.142
-11.068	2.768	-35.333
-10.905	2.832	-35.521
-10.782	2.899	-35.746
-10.635	2.96	-35.93
-10.491	3.022	-36.12
-10.335	3.087	-36.311
-10.158	3.142	-36.458
-9.951	3.196	-36.58
-9.847	3.225	-36.651
-9.615	3.272	-36.726
-9.395	3.315	-36.795
-9.139	3.348	-36.804
-8.91	3.388	-36.848
-8.662	3.419	-36.846
-8.399	3.457	-36.857
-8.144	3.49	-36.855
-7.89	3.514	-36.83
-7.623	3.545	-36.816
-7.373	3.572	-36.809
-7.094	3.598	-36.777
-6.852	3.619	-36.743
-6.56	3.655	-36.736
-6.322	3.684	-36.727
-6.085	3.715	-36.722
-5.83	3.744	-36.708
-5.524	3.79	-36.74
-5.315	3.81	-36.734
-5.158	3.82	-36.711
-4.805	3.855	-36.683
-4.48	3.887	-36.641
-4.139	3.899	-36.554
-3.916	3.904	-36.442
-3.762	3.87	-36.189
-3.58	3.863	-36.024
-3.468	3.823	-35.785
-3.445	3.733	-35.385
-3.418	3.655	-35.041
-3.274	3.645	-34.912
-3.307	3.582	-34.655
-3.334	3.521	-34.407
-3.384	3.446	-34.115
-3.4	3.387	-33.872
-3.364	3.34	-33.638
-3.434	3.267	-33.372
-3.422	3.213	-33.123
-3.468	3.145	-32.859
-3.47	3.091	-32.62
-3.511	3.028	-32.37
-3.567	2.963	-32.122
-3.663	2.889	-31.856
-3.713	2.801	-31.502
-3.789	2.699	-31.096
-3.77	2.641	-30.83
-3.81	2.545	-30.44
-3.884	2.456	-30.092
-3.896	2.371	-29.738
-3.855	2.306	-29.43
-3.825	2.236	-29.108
-3.834	2.152	-28.749
-3.957	2.027	-28.274
-3.992	1.932	-27.888
-4.019	1.842	-27.51
-4.083	1.737	-27.096
-4.329	1.613	-26.693
-4.11	1.35	-25.429
-4.093	1.329	-25.329
-4.011	1.278	-25.07
-3.938	1.23	-24.816
-3.889	1.168	-24.524
-3.813	1.112	-24.248
-3.775	1.047	-23.941
-3.711	0.987	-23.646
-3.671	0.921	-23.342
-3.639	0.821	-22.89
-3.541	0.796	-22.723
-3.409	0.767	-22.518
-3.254	0.745	-22.331
-3.032	0.728	-22.107
-2.764	0.735	-22.042
-2.515	0.743	-21.94
-2.404	0.748	-21.906
-2.174	0.76	-21.831
-1.901	0.768	-21.722
-1.682	0.773	-21.622
-1.438	0.798	-21.6
-1.205	0.808	-21.516
-0.949	0.839	-21.514
-0.722	0.847	-21.423
-0.449	0.882	-21.432
-0.203	0.904	-21.392
0.049	0.936	-21.394
0.291	0.953	-21.333
0.541	0.972	-21.281
0.78	0.986	-21.217
1.019	1.004	-21.166
1.269	1.029	-21.131
1.514	1.048	-21.09
1.752	1.061	-21.01
2.009	1.091	-20.997
2.234	1.09	-20.876
2.461	1.091	-20.76
2.717	1.123	-20.766
2.952	1.139	-20.708
3.195	1.162	-20.662
3.443	1.169	-20.573
3.677	1.176	-20.47
3.928	1.204	-20.461
4.186	1.236	-20.456
4.445	1.278	-20.496
4.687	1.302	-20.463
4.954	1.32	-20.402
5.268	1.346	-20.355
5.454	1.368	-20.362
5.735	1.403	-20.357
5.975	1.423	-20.321
6.229	1.463	-20.366
6.479	1.486	-20.336
6.781	1.529	-20.343
6.957	1.554	-20.362
7.209	1.584	-20.376
7.435	1.631	-20.455
7.705	1.647	-20.419
7.916	1.701	-20.509
8.151	1.741	-20.554
8.414	1.78	-20.583
8.666	1.822	-20.624
8.921	1.856	-20.648
9.173	1.898	-20.67
9.411	1.933	-20.702
9.685	1.97	-20.69
9.952	2.003	-20.687
12.91	2.222	-19.95
13.175	2.242	-19.875
13.461	2.255	-19.794
13.755	2.268	-19.698
14.055	2.276	-19.596
14.317	2.311	-19.578
14.564	2.365	-19.594
14.794	2.399	-19.576
15.01	2.414	-19.54
15.309	2.417	-19.441
15.615	2.43	-19.364
15.863	2.455	-19.292
16.125	2.461	-19.202
16.403	2.482	-19.104
16.667	2.497	-19.051
16.95	2.502	-18.944
17.248	2.506	-18.836
17.525	2.52	-18.765
17.864	2.538	-18.664
18.148	2.553	-18.588
18.432	2.589	-18.605
18.67	2.62	-18.563
18.85	2.648	-18.533
19.15	2.638	-18.451
19.355	2.641	-18.394
19.665	2.67	-18.332
19.897	2.683	-18.249
