2.009 16.598 -25.302
0.822 16.519 -25.301
-0.277 16.403 -25.301
-1.343 16.238 -25.301
-2.391 16.045 -25.299
-3.391 15.828 -25.301
-4.375 15.542 -25.301
-5.371 15.251 -25.299
-6.306 14.895 -25.298
-7.230 14.531 -25.303
-8.107 14.062 -25.303
-8.968 13.558 -25.302
-9.782 12.980 -25.304
-10.564 12.310 -25.304
-11.289 11.543 -25.302
-11.978 10.776 -25.303
-12.168 10.490 -25.303
-12.707 9.658 -25.304
-13.238 8.808 -25.302
-13.659 7.906 -25.303
-14.078 6.982 -25.302
-14.402 6.014 -25.299
-14.688 5.022 -25.296
-14.973 4.060 -25.296
-15.161 2.967 -25.302
-15.286 1.994 -25.304
-14.256 -5.911 -25.324
-13.864 -6.816 -25.318
-13.373 -7.726 -25.315
-12.845 -8.551 -25.312
-12.265 -9.374 -25.310
-11.661 -10.187 -25.306
-10.898 -10.908 -25.306
-10.127 -11.610 -25.306
-9.351 -12.205 -25.303
-8.503 -12.721 -25.303
-7.633 -13.217 -25.301
-6.734 -13.624 -25.301
-5.768 -13.956 -25.301
-4.755 -14.228 -25.301
-3.764 -14.489 -25.298
-2.752 -14.709 -25.299
-1.653 -14.860 -25.299
-0.584 -14.976 -25.299
0.541 -15.064 -25.299
1.687 -15.080 -25.302
1.992 -15.073 -25.302
2.980 -15.069 -25.299
4.991 -14.921 -25.301
5.983 -14.808 -25.303
6.978 -14.665 -25.304
7.323 -14.599 -25.304
8.276 -14.059 -23.987
8.755 -13.143 -23.979
9.771 -12.829 -23.976
10.778 -12.566 -23.977
11.393 -12.389 -23.973
12.579 -11.888 -23.982
13.620 -11.261 -23.969
14.638 -10.367 -24.205
19.130 -8.345 -24.328
19.773 -7.906 -24.430
19.682 10.106 -24.238
18.980 10.828 -24.199
18.014 11.117 -24.145
17.052 11.497 -24.077
16.248 11.850 -24.197
15.531 12.733 -24.095
14.189 12.822 -23.943
13.520 13.318 -23.956
12.222 13.981 -23.948
3.007 16.679 -23.972
2.008 16.666 -23.972
1.016 16.580 -23.972
-0.266 16.442 -23.972
-1.377 16.301 -23.972
-2.414 16.116 -23.972
-3.440 15.893 -23.972
-4.449 15.647 -23.972
-5.417 15.358 -23.972
-6.388 15.041 -23.972
-7.271 14.600 -23.972
-8.186 14.190 -23.973
-9.037 13.677 -23.973
-9.856 13.108 -23.973
-10.623 12.416 -23.973
-11.371 11.749 -23.972
-11.746 11.369 -23.972
-12.327 10.595 -23.972
-12.885 9.757 -23.972
-13.418 8.917 -23.971
-13.848 8.014 -23.972
-14.285 7.108 -23.970
-14.630 6.171 -23.969
-14.937 5.187 -23.971
-15.194 4.164 -23.974
-15.426 2.978 -23.971
-15.561 1.997 -23.970
-15.598 1.007 -23.972
-14.441 -6.022 -23.979
-14.016 -6.932 -23.977
-13.551 -7.809 -23.978
-13.027 -8.674 -23.979
-12.453 -9.486 -23.978
-11.835 -10.282 -23.976
-11.090 -11.020 -23.976
-10.297 -11.721 -23.974
-9.403 -12.385 -23.973
-8.599 -12.885 -23.972
-7.710 -13.337 -23.973
-6.771 -13.694 -23.972
-5.818 -14.045 -23.972
-4.842 -14.348 -23.972
-3.843 -14.624 -23.971
-2.790 -14.806 -23.971
-1.743 -14.983 -23.970
-0.656 -15.115 -23.971
0.468 -15.174 -23.972
0.986 -15.194 -23.972
1.986 -15.173 -23.971
2.978 -15.142 -23.971
3.986 -15.083 -23.972
4.985 -14.976 -23.972
6.022 -14.844 -23.973
6.289 -14.798 -23.973
7.240 -14.549 -23.976
7.505 -13.923 -22.655
7.823 -13.558 -22.644
8.685 -13.062 -22.641
9.736 -12.791 -22.641
10.737 -12.520 -22.641
11.362 -12.318 -22.644
12.424 -11.810 -22.645
12.923 -10.978 -22.633
12.916 -9.999 -22.636
-2.070 4.956 -22.679
-1.170 6.027 -22.641
-0.949 6.295 -22.641
-0.209 7.038 -22.641
0.752 7.644 -22.641
1.959 8.096 -22.641
3.497 8.363 -22.641
10.587 9.243 -22.486
12.184 13.016 -22.645
2.007 16.649 -22.641
1.012 16.583 -22.641
0.012 16.494 -22.641
-0.967 16.389 -22.641
-1.383 16.334 -22.641
-2.419 16.145 -22.641
-3.435 15.908 -22.640
-4.470 15.675 -22.641
-5.439 15.398 -22.640
-6.380 15.042 -22.640
-7.286 14.619 -22.640
-8.198 14.205 -22.641
-9.050 13.708 -22.641
-9.864 13.119 -22.641
-10.666 12.515 -22.642
-11.409 11.826 -22.642
-11.789 11.404 -22.639
-12.423 10.637 -22.639
-13.009 9.821 -22.640
-13.503 8.960 -22.639
-14.001 8.103 -22.639
-14.380 7.158 -22.639
-14.767 6.227 -22.639
-15.053 5.233 -22.639
-15.324 4.230 -22.639
-15.383 3.973 -22.638
-15.546 2.979 -22.638
-15.673 1.996 -22.639
-15.747 0.999 -22.639
-15.743 0.009 -22.639
-15.665 -0.987 -22.639
-15.170 -3.996 -22.642
-14.895 -5.009 -22.641
-14.495 -6.056 -22.642
-14.092 -6.971 -22.642
-13.659 -7.879 -22.641
-13.137 -8.731 -22.641
-12.556 -9.544 -22.642
-11.876 -10.320 -22.641
-11.196 -11.082 -22.641
-10.429 -11.781 -22.641
-9.507 -12.465 -22.641
-8.640 -12.969 -22.641
-7.745 -13.392 -22.640
-6.821 -13.775 -22.640
-5.867 -14.120 -22.640
-4.869 -14.410 -22.640
-3.848 -14.644 -22.640
-2.837 -14.883 -22.640
-1.779 -15.033 -22.640
-0.987 -15.122 -22.640
0.000 -15.223 -22.640
0.986 -15.212 -22.640
1.985 -15.203 -22.640
2.979 -15.166 -22.641
3.986 -15.107 -22.641
4.985 -14.976 -22.641
5.963 -14.783 -22.644
6.211 -14.723 -22.647
7.141 -14.423 -22.653
-0.773 6.070 -21.310
0.239 6.986 -21.309
1.577 7.162 -21.309
3.792 7.768 -21.581
11.180 8.535 -21.321
12.027 13.035 -21.305
1.999 16.607 -21.312
1.017 16.566 -21.309
0.007 16.465 -21.309
-0.980 16.349 -21.309
-1.364 16.289 -21.310
-2.406 16.116 -21.310
-3.449 15.918 -21.310
-4.447 15.665 -21.309
-5.423 15.385 -21.309
-6.390 15.053 -21.309
-7.307 14.655 -21.309
-8.186 14.194 -21.310
-9.034 13.673 -21.309
-9.871 13.112 -21.309
-10.665 12.516 -21.310
-11.394 11.791 -21.309
-11.785 11.389 -21.309
-12.458 10.652 -21.309
-13.066 9.854 -21.307
-13.584 9.006 -21.307
-14.038 8.123 -21.308
-14.438 7.197 -21.308
-14.813 6.260 -21.307
-15.088 5.268 -21.307
-15.340 4.275 -21.309
-15.391 3.982 -21.310
-15.589 2.979 -21.310
-15.704 2.000 -21.309
-15.761 0.997 -21.307
-15.751 0.007 -21.309
-15.673 -0.983 -21.309
-15.178 -3.996 -21.307
-14.840 -5.115 -21.307
-14.512 -6.060 -21.307
-14.105 -6.980 -21.307
-13.648 -7.871 -21.307
-13.129 -8.731 -21.308
-12.555 -9.544 -21.307
-11.924 -10.331 -21.307
-11.202 -11.083 -21.307
-10.420 -11.806 -21.307
-9.530 -12.471 -21.307
-8.655 -12.968 -21.308
-7.757 -13.426 -21.307
-6.839 -13.813 -21.307
-5.861 -14.124 -21.309
-4.860 -14.400 -21.309
-3.872 -14.658 -21.309
-2.825 -14.871 -21.309
-1.753 -15.018 -21.310
-0.661 -15.139 -21.310
0.000 -15.203 -21.312
0.987 -15.215 -21.310
1.988 -15.189 -21.310
2.978 -15.141 -21.310
3.973 -15.023 -21.312
4.999 -14.862 -21.314
5.960 -14.584 -21.317
6.835 -13.780 -21.316
7.617 -13.310 -21.307
8.701 -13.021 -21.309
9.734 -12.765 -21.309
11.353 -12.302 -21.309
12.418 -11.714 -21.309
12.937 -10.981 -21.315
13.186 -10.050 -21.495
12.786 -8.983 -21.340
12.484 -7.768 -21.289
6.291 -13.725 -20.006
6.676 -13.535 -19.981
7.664 -13.265 -19.976
8.728 -13.017 -19.977
9.736 -12.768 -19.977
10.706 -12.467 -19.979
11.206 -12.291 -19.977
12.380 -11.820 -19.977
13.495 -11.188 -19.982
14.494 -10.653 -20.055
14.905 -10.169 -20.062
15.203 -8.998 -20.003
15.422 -8.012 -20.067
12.814 7.778 -20.177
13.070 8.143 -20.132
12.419 9.294 -20.380
12.899 13.383 -20.152
2.989 16.476 -19.977
1.998 16.498 -19.980
1.036 16.470 -19.981
0.007 16.408 -19.980
-0.966 16.312 -19.979
-1.974 16.119 -19.980
-2.360 16.048 -19.979
-3.393 15.838 -19.979
-4.410 15.603 -19.979
-5.373 15.309 -19.977
-6.345 14.977 -19.977
-7.253 14.569 -19.977
-8.167 14.163 -19.977
-9.011 13.631 -19.977
-9.837 13.065 -19.977
-10.649 12.422 -19.979
-11.384 11.770 -19.979
-11.769 11.388 -19.977
-12.412 10.625 -19.979
-13.012 9.814 -19.979
-13.539 8.979 -19.977
-13.996 8.100 -19.979
-14.395 7.166 -19.979
-14.748 6.215 -19.981
-15.037 5.239 -19.980
-15.279 4.230 -19.982
-15.329 3.980 -19.981
-15.486 2.975 -19.982
-15.616 1.997 -19.982
-15.672 1.000 -19.982
-15.636 0.009 -19.982
-15.572 -0.985 -19.980
-15.039 -3.982 -19.981
-14.770 -4.980 -19.980
-14.413 -6.012 -19.977
-14.024 -6.936 -19.974
-13.554 -7.818 -19.974
-13.059 -8.688 -19.974
-12.467 -9.499 -19.974
-11.854 -10.288 -19.974
-11.119 -11.036 -19.974
-10.377 -11.764 -19.974
-9.463 -12.389 -19.976
-8.609 -12.897 -19.976
-7.701 -13.333 -19.977
-6.810 -13.747 -19.976
-5.832 -14.062 -19.980
-4.850 -14.363 -19.980
-3.823 -14.599 -19.981
-2.788 -14.777 -19.982
-1.698 -14.929 -19.982
-0.983 -15.012 -19.982
0.000 -15.066 -19.982
0.986 -15.089 -19.982
1.983 -15.073 -19.982
2.975 -15.004 -19.984
3.976 -14.891 -19.985
4.953 -14.643 -19.990
17.317 9.378 -18.663
17.271 10.536 -18.633
16.860 11.183 -18.813
14.991 12.469 -18.848
12.745 13.530 -18.664
11.861 13.795 -18.650
3.008 16.297 -18.648
1.999 16.364 -18.649
1.008 16.370 -18.650
0.011 16.299 -18.650
-0.974 16.217 -18.650
-1.983 16.044 -18.648
-2.335 15.980 -18.649
-3.358 15.755 -18.648
-4.379 15.534 -18.648
-5.348 15.235 -18.647
-6.289 14.875 -18.647
-7.189 14.453 -18.647
-8.082 14.020 -18.645
-8.953 13.526 -18.645
-9.775 12.949 -18.645
-10.561 12.329 -18.645
-10.886 12.039 -18.647
-11.630 11.312 -18.647
-12.248 10.542 -18.648
-12.857 9.742 -18.645
-13.353 8.871 -18.648
-13.849 8.014 -18.647
-14.250 7.085 -18.648
-14.607 6.151 -18.651
-14.867 5.148 -18.655
-15.091 4.133 -18.657
-15.308 2.968 -18.662
-15.414 1.995 -18.655
-15.467 0.997 -18.656
-15.437 0.012 -18.655
-14.818 -3.975 -18.648
-14.557 -4.962 -18.648
-14.233 -5.925 -18.651
-13.837 -6.821 -18.648
-13.385 -7.716 -18.645
-12.870 -8.588 -18.642
-12.307 -9.401 -18.645
-11.669 -10.183 -18.645
-10.983 -10.939 -18.644
-10.172 -11.637 -18.644
-9.374 -12.253 -18.644
-8.531 -12.752 -18.644
-7.633 -13.224 -18.642
-6.713 -13.598 -18.648
-5.750 -13.934 -18.647
-4.784 -14.248 -18.648
-3.766 -14.446 -18.652
-2.709 -14.601 -18.656
-1.631 -14.773 -18.654
-0.991 -14.810 -18.657
0.000 -14.893 -18.656
0.984 -14.895 -18.656
1.973 -14.864 -18.659
2.974 -14.785 -18.656
3.988 -14.613 -18.654
4.980 -14.123 -18.662
5.388 -13.864 -18.649
6.550 -13.373 -18.642
7.629 -13.154 -18.647
8.708 -12.973 -18.647
9.728 -12.737 -18.647
10.664 -12.409 -18.644
11.583 -12.039 -18.643
12.272 -11.749 -18.643
13.503 -11.249 -18.642
14.438 -10.730 -18.645
15.386 -10.075 -18.647
16.753 -9.043 -18.664
17.620 -8.020 -18.662
18.255 -6.926 -18.614
6.684 -13.283 -17.310
7.581 -13.119 -17.311
8.632 -12.901 -17.310
9.646 -12.617 -17.314
10.568 -12.277 -17.311
10.990 -12.126 -17.310
12.174 -11.648 -17.310
13.321 -11.110 -17.312
14.156 -10.661 -17.310
15.061 -10.111 -17.317
15.823 -9.565 -17.316
16.487 -9.035 -17.320
17.634 -7.954 -17.318
18.154 9.623 -17.342
17.554 10.510 -17.305
16.791 11.115 -17.315
15.952 11.625 -17.309
15.116 12.187 -17.314
14.283 12.682 -17.314
13.354 13.182 -17.312
12.489 13.527 -17.311
11.754 13.790 -17.312
3.996 15.541 -17.310
2.960 16.000 -17.312
1.988 16.154 -17.323
1.000 16.179 -17.323
0.019 16.124 -17.325
-0.974 16.031 -17.323
-2.244 15.837 -17.319
-3.280 15.629 -17.318
-4.275 15.381 -17.317
-5.260 15.087 -17.316
-6.194 14.717 -17.316
-7.100 14.316 -17.314
-7.989 13.863 -17.314
-8.833 13.321 -17.314
-9.666 12.755 -17.314
-10.441 12.112 -17.314
-11.173 11.388 -17.315
-12.025 10.398 -17.315
-12.621 9.608 -17.316
-13.145 8.748 -17.317
-13.609 7.868 -17.317
-13.973 6.924 -17.322
-14.295 5.969 -17.325
-14.592 4.980 -17.330
-14.844 3.990 -17.333
-15.031 2.977 -17.335
-15.127 1.992 -17.330
-15.186 1.008 -17.336
-13.542 -6.670 -17.314
-13.098 -7.538 -17.309
-12.575 -8.398 -17.311
-12.040 -9.242 -17.315
-11.400 -10.037 -17.309
-10.677 -10.768 -17.314
-10.011 -11.354 -17.312
-9.224 -11.994 -17.309
-8.386 -12.527 -17.309
-7.497 -12.962 -17.312
-6.575 -13.344 -17.317
-5.621 -13.701 -17.317
-4.635 -13.995 -17.318
-3.614 -14.205 -17.323
-2.531 -14.348 -17.325
-1.465 -14.510 -17.326
-0.988 -14.551 -17.328
0.000 -14.611 -17.328
0.991 -14.593 -17.328
1.960 -14.569 -17.328
2.977 -14.496 -17.327
3.916 -14.241 -17.333
4.596 -13.976 -17.314
5.022 -13.782 -17.309
6.010 -13.456 -17.309
6.655 -13.267 -15.977
7.005 -13.191 -15.977
7.980 -12.946 -15.977
8.550 -12.780 -15.977
9.518 -12.466 -15.978
10.467 -12.121 -15.978
11.396 -11.761 -15.978
12.323 -11.358 -15.978
13.205 -10.905 -15.980
14.096 -10.425 -15.987
14.928 -9.890 -15.990
15.736 -9.290 -15.980
16.472 -8.626 -15.990
17.262 -7.923 -15.988
17.986 -7.139 -15.991
19.355 7.685 -16.061
18.811 8.487 -16.034
18.036 9.364 -16.024
17.363 10.169 -16.015
16.620 10.857 -16.008
15.847 11.459 -15.986
15.003 12.016 -15.987
14.158 12.496 -15.986
13.256 12.934 -15.985
12.322 13.326 -15.983
3.975 15.420 -15.982
2.995 15.666 -15.982
1.998 15.851 -15.995
1.002 15.915 -16.000
0.025 15.863 -15.997
-0.975 15.759 -15.995
-1.967 15.618 -15.992
-3.123 15.370 -15.991
-4.166 15.162 -15.987
-5.127 14.844 -15.985
-6.064 14.502 -15.985
-6.972 14.107 -15.982
-7.876 13.654 -15.982
-8.708 13.098 -15.983
-9.513 12.517 -15.983
-10.371 11.748 -15.982
-11.070 10.985 -15.985
-11.702 10.211 -15.985
-12.314 9.414 -15.991
-12.760 8.527 -15.992
-13.259 7.666 -15.994
-13.648 6.759 -15.998
-13.966 5.787 -15.997
-14.233 4.782 -16.005
-14.481 3.794 -16.014
-14.653 2.968 -16.008
-14.756 1.976 -16.018
-14.743 1.003 -16.021
-12.719 -7.335 -15.997
-12.244 -8.209 -15.995
-11.698 -9.011 -15.985
-11.041 -9.821 -15.988
-10.285 -10.540 -15.983
-9.522 -11.254 -15.979
-9.029 -11.644 -15.977
-8.171 -12.152 -15.976
-7.319 -12.651 -15.982
-6.382 -13.026 -15.985
-5.431 -13.389 -15.985
-4.445 -13.667 -15.984
-3.459 -13.926 -15.991
-2.307 -14.030 -15.992
-1.287 -14.142 -16.000
-0.998 -14.155 -15.998
0.001 -14.205 -16.005
0.985 -14.259 -16.008
1.972 -14.245 -16.005
2.937 -14.109 -16.000
3.965 -13.875 -15.977
4.989 -13.651 -15.977
5.987 -13.427 -15.977
6.041 -13.171 -14.649
6.986 -12.961 -14.647
7.451 -12.839 -14.650
8.426 -12.559 -14.650
9.380 -12.227 -14.646
10.332 -11.881 -14.646
11.274 -11.516 -14.650
12.182 -11.091 -14.650
13.057 -10.664 -14.651
13.917 -10.138 -14.649
14.766 -9.587 -14.658
15.562 -8.968 -14.659
16.349 -8.241 -14.658
17.123 -7.503 -14.681
17.774 -6.783 -14.689
18.923 7.422 -14.725
18.348 8.228 -14.712
17.792 9.033 -14.701
17.086 9.731 -14.674
16.363 10.382 -14.674
15.618 11.099 -14.670
14.817 11.668 -14.658
13.965 12.211 -14.657
13.117 12.684 -14.661
12.203 13.097 -14.658
3.971 15.254 -14.658
2.977 15.412 -14.666
2.016 15.502 -14.666
1.013 15.509 -14.680
0.023 15.469 -14.677
-0.946 15.370 -14.669
-1.972 15.189 -14.670
-2.971 15.080 -14.662
-3.926 14.756 -14.658
-4.941 14.499 -14.655
-5.876 14.156 -14.657
-6.785 13.757 -14.647
-7.643 13.267 -14.647
-8.489 12.755 -14.647
-9.300 12.155 -14.649
-10.027 11.411 -14.647
-10.584 10.720 -14.651
-11.353 10.001 -14.655
-11.841 9.153 -14.657
-12.384 8.313 -14.666
-12.831 7.430 -14.669
-13.150 6.438 -14.669
-13.499 5.522 -14.682
-13.749 4.536 -14.708
-13.860 3.955 -14.705
-14.097 2.950 -14.704
-14.188 1.978 -14.727
-12.241 -7.060 -14.680
-11.775 -7.946 -14.686
-11.180 -8.743 -14.667
-10.518 -9.535 -14.657
-9.742 -10.273 -14.636
-8.936 -10.956 -14.639
-8.129 -11.653 -14.644
-7.060 -12.210 -14.642
-6.151 -12.620 -14.642
-5.148 -12.950 -14.649
-4.226 -13.282 -14.654
-3.220 -13.505 -14.666
-2.162 -13.677 -14.670
-1.049 -13.802 -14.682
0.000 -13.810 -14.674
1.258 -13.797 -14.667
1.980 -13.779 -14.667
2.984 -13.667 -14.654
3.969 -13.555 -14.654
4.985 -13.380 -14.654
8.670 -12.078 -13.322
9.204 -11.900 -13.326
10.152 -11.570 -13.323
11.103 -11.225 -13.317
12.001 -10.793 -13.333
12.862 -10.344 -13.323
13.725 -9.816 -13.326
14.518 -9.200 -13.325
15.283 -8.541 -13.330
16.046 -7.850 -13.337
16.784 -7.052 -13.334
17.458 -6.196 -13.341
18.339 7.114 -13.376
17.826 7.953 -13.364
17.193 8.713 -13.361
16.494 9.472 -13.353
16.071 9.905 -13.349
15.304 10.599 -13.352
14.539 11.206 -13.334
13.768 11.837 -13.333
12.930 12.349 -13.345
12.000 12.729 -13.345
4.976 14.640 -13.357
3.976 14.804 -13.361
2.979 14.952 -13.381
2.001 14.956 -13.373
1.004 14.929 -13.361
0.015 14.859 -13.358
-0.577 14.853 -13.356
-1.603 14.665 -13.349
-1.984 14.608 -13.333
-2.972 14.500 -13.332
-3.677 14.329 -13.326
-4.648 13.995 -13.326
-5.605 13.724 -13.317
-6.434 13.185 -13.317
-7.340 12.742 -13.315
-8.167 12.232 -13.317
-9.006 11.651 -13.317
-9.711 10.878 -13.325
-10.096 10.427 -13.327
-10.827 9.717 -13.332
-11.261 8.818 -13.342
-11.761 7.952 -13.361
-12.306 7.120 -13.353
-12.575 6.136 -13.387
-12.815 5.129 -13.377
-13.151 4.193 -13.389
-9.211 -9.889 -13.352
-8.320 -10.586 -13.323
-7.540 -11.074 -13.307
-6.343 -11.857 -13.322
-5.851 -12.095 -13.319
-4.887 -12.412 -13.325
-3.903 -12.726 -13.319
-2.913 -13.009 -13.337
-1.723 -13.051 -13.345
-0.765 -13.275 -13.353
0.395 -13.296 -13.364
0.968 -13.305 -13.356
1.972 -13.268 -13.356
2.974 -13.237 -13.345
3.982 -13.096 -13.341
4.976 -12.949 -13.350
5.975 -12.732 -13.337
6.994 -12.520 -13.321
8.001 -12.272 -13.323
9.956 -11.114 -12.004
10.807 -10.735 -11.983
11.718 -10.309 -11.989
12.583 -9.800 -11.971
13.443 -9.336 -12.024
14.233 -8.635 -11.993
15.049 -7.968 -12.012
15.379 -7.672 -12.028
16.045 -6.930 -12.014
17.698 6.748 -12.071
17.071 7.538 -12.041
16.518 8.392 -12.051
16.390 8.636 -12.056
15.759 9.403 -12.047
14.999 10.001 -12.032
14.267 10.557 -12.024
13.415 11.261 -12.020
12.564 11.734 -12.016
11.710 12.234 -12.059
6.959 13.713 -12.068
5.962 13.900 -12.063
4.974 14.046 -12.058
3.967 14.167 -12.078
2.978 14.254 -12.067
1.994 14.285 -12.076
1.028 14.270 -12.086
0.029 14.220 -12.064
-0.968 14.043 -12.062
-1.229 14.063 -12.028
-2.285 13.904 -12.020
-2.979 13.686 -12.028
-3.258 13.597 -12.028
-4.257 13.340 -12.014
-5.233 13.071 -11.986
-6.099 12.573 -11.986
-7.011 12.147 -11.986
-7.873 11.663 -11.986
-8.621 10.919 -11.986
-9.393 10.075 -12.021
-9.959 9.306 -12.025
-10.499 8.373 -12.114
-10.947 7.519 -12.109
-11.415 6.606 -12.148
-11.824 5.727 -12.137
-7.942 -9.800 -12.040
-7.153 -10.377 -12.023
-6.260 -10.847 -11.996
-5.429 -11.363 -12.005
-4.418 -11.711 -12.028
-3.538 -12.044 -12.014
-2.503 -12.233 -12.032
-1.436 -12.431 -12.045
-0.330 -12.543 -12.063
0.806 -12.659 -12.071
1.972 -12.667 -12.058
2.982 -12.636 -12.052
3.967 -12.470 -12.045
4.951 -12.373 -12.045
5.981 -12.210 -12.039
6.976 -12.008 -12.040
7.970 -11.715 -12.013
8.984 -11.463 -12.014
12.547 -8.967 -10.666
13.035 -8.630 -10.680
13.873 -7.991 -10.719
14.677 -7.294 -10.701
16.862 6.227 -10.790
16.276 7.052 -10.731
15.809 7.952 -10.768
15.278 8.647 -10.801
14.344 9.375 -10.701
13.771 9.868 -10.697
12.949 10.479 -10.723
12.148 11.033 -10.751
11.245 11.487 -10.754
10.417 11.927 -10.796
9.424 12.241 -10.755
8.496 12.585 -10.796
7.424 12.800 -10.747
6.982 12.884 -10.742
5.977 13.112 -10.781
4.962 13.313 -10.804
3.976 13.388 -10.772
2.993 13.442 -10.795
2.014 13.500 -10.815
1.034 13.407 -10.812
0.048 13.209 -10.820
-0.785 13.220 -10.781
-1.806 13.012 -10.758
-2.939 12.753 -10.765
-3.996 12.349 -10.679
-4.908 12.045 -10.653
-6.004 11.396 -10.654
-6.488 11.264 -10.657
-7.135 10.259 -10.737
-8.480 9.455 -10.790
-8.620 9.231 -10.774
-9.270 7.999 -10.799
-9.839 6.868 -10.830
-3.998 -10.866 -10.703
-2.986 -11.184 -10.688
-1.940 -11.340 -10.626
-0.987 -11.718 -10.770
0.182 -11.687 -10.716
1.224 -11.789 -10.769
1.982 -11.808 -10.739
2.950 -11.745 -10.770
3.973 -11.691 -10.747
4.954 -11.571 -10.724
5.967 -11.413 -10.726
6.943 -11.235 -10.757
7.631 -11.071 -10.754
8.588 -10.784 -10.716
8.991 -10.654 -10.708
10.010 -10.280 -10.711
11.340 -9.680 -10.711
12.207 -9.171 -10.665
13.407 8.837 -9.498
12.431 9.588 -9.494
11.571 10.041 -9.421
10.689 10.525 -9.424
9.891 11.049 -9.557
8.975 11.314 -9.480
7.972 11.726 -9.534
6.914 11.966 -9.514
5.923 12.234 -9.599
4.964 12.325 -9.597
3.949 12.488 -9.630
3.011 12.595 -9.641
2.039 12.380 -9.565
1.057 12.490 -9.537
0.035 11.904 -9.491
-0.961 11.890 -9.541
-2.050 11.462 -9.801
-2.984 11.098 -9.600
-3.967 10.970 -9.576
-4.896 10.501 -9.430
-7.071 8.232 -9.434
-7.776 7.598 -9.499
11.793 8.059 -8.093
11.695 8.241 -8.154
10.786 8.635 -8.038
10.005 9.322 -8.166
7.098 10.227 -8.073
6.221 10.648 -8.251
4.987 10.576 -8.065
3.976 10.795 -8.174
3.015 10.878 -8.248
2.031 10.817 -8.307
1.064 10.561 -8.241
0.003 10.395 -8.239
-0.918 10.192 -8.310
1.981 10.150 -7.792
0.957 10.023 -7.819
-0.051 9.925 -7.837
-1.047 9.715 -8.030
-2.035 9.649 -8.236
-2.827 9.575 -8.259
-3.980 9.810 -8.849
-4.918 9.844 -8.994
-5.781 9.956 -9.545
-6.723 9.623 -9.992
12.152 13.008 -20.832
13.120 12.737 -19.410
9.645 10.216 -8.755
8.876 10.336 -8.600
8.100 9.580 -7.833
6.816 9.296 -7.433
5.421 9.123 -7.195
4.683 8.891 -7.015
4.215 8.833 -6.976
3.264 8.600 -6.866
2.257 8.445 -6.860
1.235 8.382 -6.881
0.793 8.345 -6.914
-0.167 8.290 -7.160
-1.160 8.206 -7.296
-2.194 8.065 -7.263
-3.153 8.014 -7.555
-4.180 8.055 -7.703
-5.063 8.022 -8.259
-5.932 7.902 -8.663
-6.864 7.943 -9.114
15.328 12.574 -23.963
14.599 12.439 -23.553
13.860 12.303 -23.321
13.469 12.264 -23.268
12.667 12.076 -22.659
12.215 11.851 -21.776
12.113 11.686 -21.175
12.477 11.602 -20.632
13.642 11.651 -20.199
14.593 11.661 -19.731
15.455 11.601 -19.147
9.902 8.457 -7.602
9.468 8.236 -7.354
8.546 8.105 -7.075
7.631 7.871 -6.769
6.657 7.670 -6.535
5.714 7.418 -6.349
4.681 7.354 -6.277
3.713 7.145 -6.192
2.767 7.077 -6.237
1.689 6.901 -6.198
0.632 6.777 -6.215
-0.272 6.721 -6.409
-1.276 6.620 -6.517
-2.285 6.548 -6.715
-3.240 6.463 -6.858
-4.149 6.461 -7.335
-5.109 6.415 -7.619
-6.049 6.382 -7.993
-6.943 6.390 -8.522
-7.838 6.397 -8.979
-8.685 6.519 -9.724
-9.575 6.523 -10.301
-10.187 6.645 -11.056
15.863 11.322 -23.669
14.988 11.219 -23.603
14.028 11.025 -23.351
12.996 10.786 -22.773
12.710 10.639 -22.277
12.194 10.395 -21.398
13.403 10.354 -20.664
15.092 8.457 -10.463
14.790 8.314 -10.114
14.135 8.047 -9.394
13.422 7.784 -8.740
12.694 7.443 -8.121
11.748 7.255 -7.625
10.834 6.992 -7.158
9.903 6.773 -6.781
8.806 6.572 -6.438
8.020 6.382 -6.206
7.065 6.196 -6.006
6.099 6.002 -5.880
5.133 5.834 -5.754
4.064 5.741 -5.737
3.085 5.578 -5.636
2.674 5.514 -5.605
2.074 5.444 -5.603
1.004 5.353 -5.750
-0.059 5.260 -5.913
-1.292 5.146 -6.118
-2.269 5.065 -6.314
-3.264 4.987 -6.442
-4.215 4.943 -6.761
-5.138 4.923 -7.180
-6.068 4.898 -7.565
-6.992 4.887 -7.988
-7.493 4.885 -8.258
-8.333 4.908 -8.832
-9.161 4.951 -9.413
-9.846 5.047 -10.108
-10.638 5.086 -10.746
-11.343 5.173 -11.448
-12.019 5.386 -12.248
-10.812 9.747 -30.942
-10.608 9.844 -31.230
-9.982 10.106 -31.984
-9.569 10.215 -32.340
-8.651 10.371 -33.185
-7.652 10.635 -33.817
-6.955 10.807 -34.480
-6.068 10.987 -34.961
15.531 8.956 -19.430
16.845 9.122 -19.755
17.402 8.969 -18.430
18.813 9.080 -18.028
18.795 8.867 -16.960
16.134 7.106 -10.587
15.606 6.891 -9.829
14.922 6.597 -9.115
14.208 6.349 -8.458
13.415 6.113 -7.853
12.582 5.841 -7.333
11.646 5.607 -6.881
10.623 5.394 -6.481
10.290 5.315 -6.359
9.337 5.119 -6.066
8.387 4.945 -5.826
7.410 4.763 -5.636
6.438 4.608 -5.506
5.456 4.459 -5.417
4.468 4.311 -5.350
3.419 4.186 -5.357
2.396 4.054 -5.382
1.664 3.961 -5.404
0.688 3.877 -5.541
-0.323 3.774 -5.623
-1.294 3.684 -5.787
-2.271 3.609 -5.967
-3.229 3.567 -6.240
-4.191 3.506 -6.496
-5.123 3.474 -6.862
-6.072 3.441 -7.232
-6.957 3.442 -7.693
-7.842 3.470 -8.280
-8.735 3.503 -8.899
-9.421 3.509 -9.312
-10.199 3.560 -9.930
-10.892 3.647 -10.630
-11.580 3.765 -11.351
-12.306 3.851 -12.062
-12.881 3.980 -12.901
-11.998 8.071 -30.329
-11.816 8.151 -30.584
-11.413 8.369 -31.431
-10.820 8.630 -32.267
-10.325 8.821 -32.816
-9.709 9.056 -33.537
-8.878 9.223 -34.070
-8.263 9.491 -34.848
-7.441 9.693 -35.381
-6.740 9.952 -36.008
-5.704 10.215 -36.460
-5.371 10.278 -36.522
19.062 10.152 -23.754
18.238 10.226 -23.842
16.867 10.087 -23.802
15.576 9.902 -23.589
14.155 9.707 -23.438
13.705 9.677 -23.514
11.839 9.573 -23.219
10.998 9.143 -22.033
16.022 11.416 -35.794
16.974 11.491 -35.500
17.892 11.470 -34.697
18.518 11.381 -33.904
19.277 11.362 -33.254
20.053 11.277 -32.607
22.223 9.984 -25.500
21.082 9.887 -25.219
21.098 9.101 -23.956
20.116 9.023 -23.632
18.991 8.913 -23.548
17.971 8.852 -23.740
14.473 8.569 -24.321
13.185 8.271 -23.693
16.669 7.666 -19.592
17.565 7.705 -18.879
18.843 7.726 -18.290
19.906 7.695 -17.550
19.592 7.426 -16.392
19.262 7.162 -15.261
18.946 6.897 -14.216
18.524 6.639 -13.292
18.089 6.382 -12.395
17.650 6.097 -11.559
17.009 5.814 -10.715
16.372 5.555 -9.846
15.644 5.241 -8.895
14.841 4.982 -8.313
14.065 4.738 -7.720
13.220 4.511 -7.203
12.294 4.279 -6.723
11.346 4.042 -6.312
10.613 3.909 -6.084
9.670 3.720 -5.803
8.705 3.540 -5.590
7.745 3.364 -5.404
6.754 3.207 -5.278
5.756 3.066 -5.200
4.728 2.928 -5.158
3.713 2.805 -5.173
2.735 2.667 -5.138
1.641 2.567 -5.259
0.699 2.450 -5.255
-0.284 2.361 -5.394
-1.255 2.290 -5.617
-2.239 2.204 -5.793
-3.221 2.135 -6.000
-4.153 2.092 -6.316
-5.096 2.051 -6.639
-6.020 2.032 -7.062
-6.930 2.025 -7.515
-7.826 2.037 -8.061
-8.712 2.083 -8.733
-9.619 2.088 -9.205
-10.387 2.147 -9.868
-11.076 2.234 -10.590
-11.846 2.292 -11.258
-12.453 2.410 -12.041
-13.039 2.529 -12.848
-13.582 2.675 -13.733
-13.863 2.765 -14.267
-13.592 6.002 -28.372
-13.198 6.260 -29.218
-12.751 6.535 -30.160
-12.253 6.806 -31.047
-11.760 7.063 -31.886
-11.161 7.321 -32.712
-10.638 7.581 -33.578
-10.010 7.825 -34.292
-9.367 8.055 -35.030
-8.608 8.287 -35.656
-7.782 8.523 -36.141
-6.860 8.747 -36.587
-6.188 8.847 -36.653
-5.183 8.988 -36.706
-4.170 9.105 -36.680
-3.321 9.197 -36.607
-2.308 9.293 -36.472
-1.292 9.410 -36.400
16.892 10.184 -35.890
17.167 10.205 -35.842
18.168 10.311 -35.796
19.108 10.432 -35.640
19.928 10.339 -34.839
20.276 10.263 -34.396
21.042 10.230 -33.743
21.692 10.192 -32.953
22.196 9.983 -32.062
24.058 9.002 -25.922
22.807 8.716 -25.413
22.676 8.328 -24.658
21.710 7.884 -23.707
20.526 7.720 -23.530
20.233 7.679 -23.543
19.200 7.573 -23.496
18.234 7.513 -23.819
17.835 7.542 -24.007
-2.765 5.011 -24.157
-2.557 4.844 -23.003
-1.774 4.695 -22.339
-0.844 4.685 -21.784
0.060 4.751 -21.312
1.073 4.825 -21.275
2.125 4.978 -21.374
3.177 5.160 -21.389
4.188 5.288 -21.286
18.726 6.397 -18.964
19.486 6.388 -18.099
20.261 6.434 -17.976
20.299 6.211 -16.901
20.081 5.948 -15.749
19.641 5.630 -14.551
19.190 5.332 -13.495
18.797 5.076 -12.612
18.254 4.805 -11.745
17.671 4.538 -10.854
17.342 4.393 -10.422
16.784 4.135 -9.615
16.106 3.867 -8.911
15.390 3.640 -8.240
14.615 3.390 -7.648
13.766 3.166 -7.124
12.810 2.939 -6.670
11.850 2.727 -6.254
10.866 2.501 -5.884
9.963 2.339 -5.644
9.000 2.150 -5.433
8.012 2.003 -5.301
7.054 1.837 -5.148
6.051 1.694 -5.078
5.014 1.567 -5.069
4.007 1.434 -5.049
2.988 1.308 -5.049
1.958 1.194 -5.096
0.880 1.084 -5.198
-0.214 0.983 -5.346
-1.197 0.898 -5.516
-2.162 0.823 -5.712
-3.125 0.768 -5.987
-4.093 0.705 -6.237
-5.026 0.674 -6.597
-5.956 0.651 -6.996
-6.870 0.636 -7.433
-7.176 0.636 -7.604
-8.035 0.653 -8.142
-8.870 0.683 -8.715
-9.717 0.709 -9.281
-10.499 0.759 -9.910
-11.200 0.831 -10.583
-11.903 0.919 -11.312
-12.548 1.015 -12.097
-13.162 1.132 -12.883
-13.712 1.282 -13.778
-14.082 1.400 -14.488
-14.527 1.548 -15.390
-14.818 3.949 -26.031
-14.534 4.188 -26.946
-14.159 4.445 -27.855
-13.749 4.738 -28.883
-13.368 4.970 -29.672
-12.968 5.216 -30.540
-12.405 5.543 -31.645
-11.886 5.805 -32.517
-11.351 6.066 -33.362
-10.776 6.320 -34.145
-10.511 6.436 -34.508
-10.204 6.575 -34.944
-9.604 6.821 -35.686
-8.875 7.054 -36.306
-8.000 7.249 -36.681
-7.013 7.399 -36.786
-6.000 7.532 -36.811
-4.970 7.652 -36.789
-4.248 7.732 -36.731
-3.240 7.832 -36.573
-2.222 7.908 -36.467
-1.798 7.934 -36.345
-0.702 7.958 -36.148
-0.861 7.706 -34.798
-0.966 7.453 -33.757
-0.714 7.265 -32.807
-0.430 7.083 -31.867
-3.229 3.470 -23.300
-2.741 3.368 -22.920
-2.184 3.222 -21.955
-1.065 3.309 -21.595
0.087 3.337 -21.059
1.147 3.446 -21.232
2.132 3.531 -21.073
3.165 3.671 -21.079
4.186 3.790 -21.037
5.202 3.856 -20.910
6.213 4.009 -20.910
17.318 8.826 -35.709
18.087 8.952 -35.819
19.125 9.081 -35.872
20.300 9.202 -35.794
21.267 9.282 -35.542
21.785 9.118 -34.646
22.444 9.011 -33.849
22.955 8.890 -32.953
23.489 8.772 -32.141
24.002 8.642 -31.279
25.094 8.167 -28.455
25.288 7.978 -27.510
25.255 7.619 -26.273
23.933 7.360 -25.217
23.753 7.207 -24.927
23.657 7.100 -24.683
22.796 6.690 -23.810
22.376 6.601 -23.742
20.924 6.390 -23.509
20.471 6.322 -23.458
19.532 6.165 -23.685
19.964 5.065 -18.082
20.674 4.945 -17.193
20.696 4.743 -16.293
20.269 4.403 -14.994
20.127 4.306 -14.616
19.704 4.046 -13.724
19.247 3.784 -12.834
18.798 3.522 -11.955
18.224 3.260 -11.076
17.745 3.052 -10.475
17.152 2.789 -9.685
16.480 2.535 -8.980
15.805 2.300 -8.314
15.052 2.067 -7.685
14.181 1.840 -7.172
13.290 1.614 -6.686
12.335 1.393 -6.273
11.277 1.185 -5.919
10.223 0.973 -5.625
9.247 0.808 -5.439
8.263 0.656 -5.299
7.286 0.505 -5.187
6.283 0.365 -5.119
5.278 0.224 -5.061
4.250 0.088 -5.026
3.226 -0.028 -5.042
2.186 -0.148 -5.094
1.132 -0.251 -5.202
0.867 -0.277 -5.245
-0.123 -0.375 -5.346
-1.108 -0.459 -5.516
-2.077 -0.525 -5.754
-3.042 -0.593 -5.979
-3.994 -0.644 -6.275
-4.937 -0.686 -6.601
-5.857 -0.709 -6.998
-6.781 -0.715 -7.462
-7.679 -0.707 -7.988
-8.084 -0.702 -8.231
-8.921 -0.674 -8.801
-9.767 -0.646 -9.372
-10.524 -0.592 -10.003
-11.241 -0.522 -10.707
-11.958 -0.450 -11.388
-12.598 -0.341 -12.170
-13.205 -0.226 -12.982
-13.760 -0.097 -13.838
-14.192 0.047 -14.715
-14.561 0.213 -15.628
-14.953 0.372 -16.558
-15.225 0.554 -17.498
-15.204 2.386 -25.482
-14.941 2.640 -26.415
-14.686 2.883 -27.340
-14.391 3.124 -28.248
-13.981 3.390 -29.160
-13.593 3.649 -30.060
-13.137 3.916 -30.954
-12.985 4.015 -31.314
-12.516 4.273 -32.186
-11.981 4.538 -33.043
-11.500 4.809 -33.966
-10.917 5.055 -34.710
-10.311 5.311 -35.493
-9.693 5.563 -36.244
-8.755 5.778 -36.676
-7.849 5.929 -36.832
-6.783 6.072 -36.876
-5.783 6.196 -36.862
-5.160 6.273 -36.862
-4.133 6.378 -36.779
-3.173 6.411 -36.453
-2.135 6.436 -36.132
-1.609 6.434 -35.654
-1.708 6.302 -35.135
-2.183 5.838 -33.381
-2.419 5.665 -32.761
-2.172 5.427 -31.599
-3.781 2.184 -24.390
-3.530 2.002 -23.638
-3.226 1.840 -22.574
-2.307 1.847 -22.030
-1.353 1.848 -21.533
-0.781 1.883 -21.367
0.245 1.997 -21.402
1.232 2.082 -21.236
2.197 2.146 -20.992
3.186 2.230 -20.837
4.215 2.358 -20.820
5.224 2.418 -20.609
6.269 2.516 -20.607
7.459 2.693 -20.679
8.423 2.848 -20.788
16.479 6.651 -31.810
16.541 7.191 -33.155
16.609 7.133 -34.256
16.890 7.369 -35.167
17.781 7.490 -35.477
19.099 7.695 -35.801
20.380 7.881 -35.950
21.430 7.988 -35.897
22.386 8.043 -35.572
23.125 7.877 -34.480
23.636 7.768 -33.753
24.181 7.648 -32.926
24.654 7.488 -31.938
25.177 7.278 -30.809
25.482 7.110 -29.882
25.782 6.943 -28.937
25.906 6.852 -28.475
26.079 6.610 -27.292
26.016 6.397 -26.468
24.720 6.097 -25.330
24.418 5.884 -24.775
23.838 5.520 -23.956
22.763 5.280 -23.670
21.715 5.121 -23.585
20.707 4.966 -23.552
19.680 4.834 -23.752
20.439 2.952 -14.572
20.114 2.772 -13.997
19.672 2.508 -13.051
19.168 2.242 -12.187
18.620 1.974 -11.330
18.074 1.735 -10.618
17.461 1.480 -9.852
16.808 1.230 -9.135
16.124 0.992 -8.465
15.333 0.758 -7.872
14.496 0.529 -7.335
13.628 0.303 -6.837
12.659 0.089 -6.424
12.314 0.015 -6.306
11.377 -0.161 -6.010
10.425 -0.334 -5.778
9.463 -0.506 -5.563
8.492 -0.660 -5.417
7.509 -0.814 -5.288
6.504 -0.959 -5.210
5.516 -1.099 -5.131
4.464 -1.227 -5.146
3.447 -1.355 -5.138
2.405 -1.472 -5.198
1.982 -1.516 -5.241
0.975 -1.622 -5.326
-0.014 -1.716 -5.450
-0.986 -1.794 -5.636
-1.972 -1.873 -5.816
-2.933 -1.934 -6.072
-3.898 -1.996 -6.335
-4.842 -2.030 -6.696
-5.750 -2.059 -7.065
-6.651 -2.055 -7.569
-7.565 -2.049 -8.090
-8.085 -2.043 -8.384
-8.907 -2.012 -8.961
-9.742 -1.981 -9.539
-10.513 -1.935 -10.160
-11.208 -1.856 -10.871
-11.912 -1.782 -11.567
-12.562 -1.684 -12.341
-13.195 -1.578 -13.137
-13.753 -1.429 -14.058
-14.216 -1.277 -14.975
-14.581 -1.112 -15.894
-14.948 -0.950 -16.816
-15.224 -0.767 -17.759
-15.412 -0.564 -18.726
-15.603 0.600 -23.930
-15.478 0.842 -24.906
-15.252 1.086 -25.836
-14.994 1.335 -26.775
-14.755 1.579 -27.708
-14.449 1.827 -28.618
-14.038 2.091 -29.525
-13.686 2.341 -30.422
-13.478 2.487 -30.939
-13.009 2.746 -31.814
-12.509 3.008 -32.669
-12.041 3.277 -33.587
-11.518 3.537 -34.437
-11.322 3.625 -34.706
-10.909 3.793 -35.204
-10.366 4.017 -35.886
-9.646 4.288 -36.665
-8.582 4.474 -36.894
-7.581 4.612 -36.947
-6.539 4.732 -36.903
-6.101 4.782 -36.887
-5.067 4.906 -36.853
-4.071 4.968 -36.683
-3.257 5.009 -36.509
-2.531 5.024 -36.010
-2.636 4.734 -34.814
-2.807 4.480 -33.805
-3.026 4.219 -32.793
-3.468 3.978 -31.987
-3.656 3.625 -30.577
-3.623 3.316 -29.207
-3.826 2.959 -27.774
17.404 3.743 -25.663
17.650 4.004 -26.653
17.697 4.341 -28.085
17.046 4.718 -30.071
16.951 5.040 -31.516
17.261 5.481 -32.747
17.410 5.743 -33.913
17.475 6.008 -35.156
17.877 6.082 -35.381
18.264 6.173 -35.608
19.437 6.376 -35.907
20.581 6.546 -36.022
21.564 6.668 -36.033
22.554 6.752 -35.909
23.458 6.773 -35.484
24.178 6.637 -34.517
24.700 6.488 -33.587
25.154 6.329 -32.641
25.557 6.146 -31.633
25.708 6.066 -31.207
26.017 5.892 -30.251
26.280 5.706 -29.324
26.490 5.508 -28.390
26.592 5.293 -27.393
26.530 5.121 -26.593
25.792 4.854 -25.614
24.988 4.565 -24.932
24.521 4.257 -24.056
23.197 3.957 -23.693
21.972 3.770 -23.413
20.942 3.656 -23.538
19.898 3.565 -23.817
20.146 2.337 -18.099
21.206 2.284 -17.297
21.245 2.216 -16.999
21.090 1.917 -15.775
20.524 1.567 -14.550
19.951 1.226 -13.363
19.438 0.951 -12.465
18.866 0.688 -11.633
18.216 0.407 -10.785
17.556 0.136 -9.963
17.010 -0.058 -9.395
16.313 -0.303 -8.709
15.567 -0.531 -8.112
14.750 -0.760 -7.567
13.830 -0.984 -7.094
12.873 -1.200 -6.676
11.843 -1.408 -6.331
11.556 -1.462 -6.242
10.613 -1.642 -5.981
9.646 -1.808 -5.787
8.670 -1.967 -5.628
7.679 -2.120 -5.504
6.701 -2.267 -5.400
5.685 -2.402 -5.355
4.679 -2.539 -5.313
3.646 -2.658 -5.350
2.613 -2.778 -5.390
1.556 -2.891 -5.464
1.108 -2.937 -5.516
0.110 -3.035 -5.626
-0.866 -3.115 -5.807
-1.841 -3.194 -5.998
-2.805 -3.259 -6.229
-3.757 -3.307 -6.544
-4.689 -3.341 -6.899
-5.611 -3.362 -7.300
-6.525 -3.371 -7.765
-7.422 -3.367 -8.270
-8.003 -3.358 -8.607
-8.806 -3.322 -9.196
-9.642 -3.291 -9.781
-10.416 -3.247 -10.395
-11.125 -3.175 -11.083
-11.810 -3.095 -11.810
-12.457 -2.999 -12.571
-13.067 -2.887 -13.385
-13.592 -2.752 -14.258
-14.123 -2.583 -15.259
-14.506 -2.421 -16.178
-14.836 -2.248 -17.106
-15.100 -2.063 -18.056
-15.327 -1.870 -19.006
-15.514 -1.674 -19.954
-15.610 -1.457 -20.953
-15.657 -1.230 -21.956
-15.664 -1.153 -22.298
-15.610 -0.920 -23.290
-15.514 -0.684 -24.250
-15.391 -0.445 -25.224
-15.205 -0.203 -26.169
-14.960 0.037 -27.101
-14.698 0.284 -28.028
-14.360 0.540 -28.951
-14.024 0.789 -29.849
-13.667 1.043 -30.750
-13.218 1.302 -31.633
-12.931 1.466 -32.187
-12.478 1.735 -33.109
-11.959 1.996 -33.953
-11.436 2.253 -34.790
-10.848 2.519 -35.617
-10.263 2.760 -36.348
-9.321 3.001 -36.862
-8.356 3.137 -36.926
-7.331 3.261 -36.940
-6.277 3.375 -36.869
-5.001 3.501 -36.749
-4.083 3.531 -36.410
-3.743 3.544 -36.219
-3.393 3.326 -35.094
-3.399 2.984 -33.615
-3.497 2.820 -32.949
-3.640 2.566 -31.932
-3.870 2.207 -30.501
-3.783 1.914 -29.183
-3.978 1.520 -27.586
-4.234 1.130 -26.034
-4.019 0.892 -24.892
-3.704 0.668 -23.741
-3.368 0.452 -22.625
-2.480 0.421 -22.019
-1.638 0.455 -21.711
-0.674 0.525 -21.493
0.331 0.632 -21.412
1.310 0.711 -21.214
2.280 0.775 -20.983
3.257 0.853 -20.781
4.232 0.920 -20.548
5.260 1.022 -20.455
6.295 1.141 -20.424
7.375 1.282 -20.479
7.734 1.332 -20.514
8.697 1.490 -20.725
14.111 1.951 -19.768
15.091 2.095 -19.719
16.209 2.161 -19.424
17.335 2.220 -19.085
18.378 2.264 -18.774
-12.784 0.201 -32.598
-12.354 0.453 -33.454
-11.842 0.714 -34.304
-11.284 0.968 -35.105
-10.707 1.234 -35.948
-10.064 1.466 -36.603
-9.103 1.655 -36.885
-8.117 1.782 -36.905
-7.071 1.903 -36.871
-5.936 2.031 -36.830
-4.920 2.123 -36.708
-4.172 2.146 -36.359
-3.716 1.889 -35.011
-3.700 1.543 -33.496
-3.697 1.460 -33.144
-3.800 1.193 -32.035
-3.918 0.846 -30.595
-4.042 0.478 -29.072
-4.054 0.148 -27.653
-4.021 -0.157 -26.280
-3.767 -0.394 -25.124
-3.537 -0.622 -24.007
-3.224 -0.852 -22.839
-2.519 -0.935 -22.088
-1.526 -0.874 -21.829
-0.554 -0.811 -21.585
0.436 -0.707 -21.479
1.413 -0.635 -21.281
2.391 -0.559 -21.079
3.357 -0.494 -20.839
4.329 -0.426 -20.604
5.344 -0.322 -20.502
6.328 -0.228 -20.378
7.435 -0.075 -20.448
7.988 0.000 -20.491
8.967 0.144 -20.647
9.967 0.280 -20.659
14.343 0.614 -19.758
15.394 0.716 -19.595
16.490 0.798 -19.354
17.607 0.870 -19.105
18.861 0.982 -19.399
19.336 0.962 -18.540
20.255 0.965 -18.062
21.195 0.941 -17.442
20.796 0.339 -15.070
20.114 -0.068 -13.655
19.551 -0.338 -12.779
18.977 -0.605 -11.942
18.381 -0.877 -11.087
17.647 -1.154 -10.273
17.131 -1.341 -9.731
16.426 -1.586 -9.056
15.697 -1.821 -8.441
14.874 -2.050 -7.894
13.966 -2.273 -7.412
13.000 -2.489 -6.990
12.637 -2.565 -6.845
11.717 -2.752 -6.544
10.759 -2.925 -6.306
9.798 -3.094 -6.097
8.841 -3.253 -5.923
7.837 -3.405 -5.807
6.854 -3.551 -5.710
5.853 -3.691 -5.638
4.834 -3.824 -5.623
3.793 -3.945 -5.646
2.783 -4.069 -5.663
1.745 -4.180 -5.741
1.266 -4.226 -5.801
0.268 -4.327 -5.907
-0.704 -4.404 -6.099
-1.671 -4.470 -6.337
-2.634 -4.532 -6.583
-3.593 -4.590 -6.858
-4.525 -4.625 -7.205
-5.444 -4.652 -7.588
-6.368 -4.660 -8.059
-7.267 -4.662 -8.538
-8.163 -4.643 -9.099
-8.688 -4.625 -9.460
-9.492 -4.586 -10.065
-10.253 -4.534 -10.701
-10.981 -4.470 -11.363
-11.671 -4.389 -12.093
-12.304 -4.292 -12.854
-12.901 -4.172 -13.693
-13.422 -4.033 -14.585
-13.907 -3.884 -15.498
-14.306 -3.707 -16.479
-14.651 -3.534 -17.408
-14.913 -3.348 -18.349
-15.147 -3.157 -19.308
-15.308 -2.954 -20.273
-15.448 -2.746 -21.243
-15.484 -2.520 -22.244
-15.467 -2.283 -23.256
-15.393 -2.036 -24.277
-15.360 -1.970 -24.553
-15.217 -1.729 -25.518
-15.050 -1.490 -26.466
-14.836 -1.246 -27.410
-14.538 -0.999 -28.319
-14.228 -0.744 -29.253
-13.884 -0.495 -30.145
-13.523 -0.239 -31.052
-13.269 -0.076 -31.626
18.450 2.703 -26.300
18.028 2.724 -26.869
17.888 3.048 -28.355
17.493 3.402 -30.097
17.472 3.501 -30.539
17.417 3.721 -31.525
17.636 4.023 -32.710
17.852 4.335 -33.872
18.224 4.633 -34.832
18.709 4.871 -35.588
19.771 5.094 -36.079
20.785 5.212 -36.061
21.833 5.342 -36.079
22.684 5.429 -36.044
23.667 5.512 -35.898
24.582 5.454 -35.140
25.126 5.291 -34.120
25.578 5.129 -33.185
25.954 4.933 -32.180
26.306 4.728 -31.105
26.450 4.645 -30.652
26.673 4.451 -29.694
26.846 4.253 -28.727
26.967 4.067 -27.839
26.999 3.833 -26.822
26.621 3.597 -25.960
25.488 3.283 -25.092
24.978 3.011 -24.334
24.712 2.896 -24.010
23.623 2.650 -23.738
23.169 2.588 -23.710
22.210 2.430 -23.424
21.177 2.317 -23.492
20.139 2.208 -23.558
19.209 2.013 -23.747
-12.799 -1.219 -32.384
-12.606 -1.101 -32.797
-12.160 -0.836 -33.707
-11.661 -0.568 -34.591
-11.123 -0.310 -35.420
-10.576 -0.058 -36.217
-9.825 0.163 -36.793
-8.875 0.304 -36.873
-7.853 0.434 -36.885
-6.885 0.543 -36.846
-5.857 0.659 -36.809
-4.894 0.739 -36.680
-4.116 0.591 -35.567
-3.961 0.455 -34.887
-3.793 0.174 -33.576
-3.801 -0.144 -32.177
-3.953 -0.511 -30.672
-3.990 -0.826 -29.332
-3.916 -1.126 -27.984
-3.841 -1.412 -26.712
-3.654 -1.682 -25.441
-3.326 -1.872 -24.436
-2.966 -2.095 -23.273
-2.350 -2.220 -22.410
-1.394 -2.211 -21.934
-0.426 -2.132 -21.739
0.549 -2.044 -21.588
1.540 -1.957 -21.446
2.510 -1.886 -21.221
3.482 -1.816 -20.992
4.468 -1.735 -20.811
5.468 -1.643 -20.671
6.479 -1.540 -20.571
7.542 -1.398 -20.609
8.177 -1.304 -20.679
9.209 -1.172 -20.676
10.235 -1.044 -20.661
13.465 -0.794 -20.005
14.529 -0.693 -19.859
15.615 -0.620 -19.565
16.727 -0.570 -19.238
17.783 -0.515 -18.934
19.057 -0.441 -18.665
20.137 -0.418 -18.064
21.316 -0.417 -17.410
21.236 -0.666 -16.402
20.700 -1.028 -15.141
20.021 -1.399 -13.903
19.538 -1.636 -13.131
18.936 -1.912 -12.280
18.311 -2.182 -11.444
17.813 -2.372 -10.881
17.173 -2.621 -10.137
16.451 -2.860 -9.500
15.714 -3.097 -8.875
14.906 -3.326 -8.310
14.019 -3.553 -7.814
13.071 -3.765 -7.395
12.772 -3.828 -7.275
11.834 -4.011 -6.974
10.889 -4.188 -6.725
9.933 -4.360 -6.496
8.965 -4.513 -6.339
7.964 -4.672 -6.209
6.990 -4.815 -6.105
5.996 -4.958 -6.027
4.991 -5.086 -6.002
3.932 -5.216 -6.020
2.915 -5.334 -6.051
1.879 -5.448 -6.120
0.792 -5.559 -6.240
0.441 -5.592 -6.291
-0.530 -5.679 -6.440
-1.494 -5.745 -6.680
-2.455 -5.803 -6.949
-3.417 -5.859 -7.234
-4.341 -5.892 -7.586
-5.253 -5.909 -8.007
-6.173 -5.925 -8.435
-7.081 -5.923 -8.937
-7.970 -5.913 -9.464
-8.480 -5.898 -9.802
-9.281 -5.859 -10.404
-10.048 -5.805 -11.044
-10.765 -5.741 -11.711
-11.451 -5.657 -12.447
-12.076 -5.555 -13.237
-12.656 -5.439 -14.055
-13.197 -5.305 -14.929
-13.662 -5.144 -15.875
-14.050 -4.978 -16.801
-14.392 -4.805 -17.728
-15.225 -3.786 -22.569
-15.211 -3.554 -23.568
-15.128 -3.301 -24.608
-14.988 -3.039 -25.676
-14.771 -2.768 -26.729
-14.570 -2.524 -27.680
-14.310 -2.278 -28.604
-14.028 -2.030 -29.533
-13.639 -1.775 -30.431
-13.310 -1.524 -31.332
19.764 3.703 -36.058
21.026 3.884 -36.200
22.089 4.011 -36.146
22.795 4.095 -36.141
23.791 4.188 -36.042
24.786 4.242 -35.746
25.546 4.004 -34.320
25.869 3.887 -33.640
26.257 3.700 -32.623
26.559 3.474 -31.488
26.696 3.372 -30.966
26.895 3.174 -30.009
27.091 2.978 -29.052
27.240 2.767 -28.067
27.255 2.545 -27.083
26.993 2.310 -26.202
25.722 1.953 -25.320
25.127 1.610 -24.165
24.196 1.378 -23.849
23.432 1.236 -23.613
22.447 1.098 -23.521
21.425 0.967 -23.485
20.393 0.852 -23.520
19.474 0.750 -23.709
17.680 0.859 -24.953
17.976 1.133 -25.972
18.162 1.438 -27.192
17.991 1.766 -28.714
17.753 2.114 -30.339
17.811 2.270 -30.988
17.859 2.413 -31.582
17.953 2.715 -32.841
18.194 3.006 -33.966
18.566 3.289 -34.947
18.984 3.557 -35.835
-10.321 -1.383 -36.290
-9.592 -1.169 -36.809
-8.647 -1.037 -36.864
-7.606 -0.908 -36.853
-6.792 -0.814 -36.834
-5.762 -0.689 -36.837
-4.832 -0.624 -36.681
-4.416 -0.684 -36.136
-3.949 -0.851 -35.156
-3.748 -1.137 -33.817
-3.681 -1.445 -32.437
-3.810 -1.796 -30.990
-3.774 -2.098 -29.663
-3.610 -2.361 -28.447
-3.468 -2.630 -27.204
-3.383 -2.928 -25.859
-3.040 -3.141 -24.754
-2.529 -3.270 -23.922
-1.954 -3.410 -23.017
-1.255 -3.497 -22.267
-0.260 -3.414 -22.073
0.727 -3.321 -21.934
1.699 -3.252 -21.722
2.652 -3.193 -21.460
3.624 -3.127 -21.220
4.602 -3.051 -21.007
5.615 -2.951 -20.896
6.647 -2.831 -20.854
7.681 -2.700 -20.865
8.686 -2.588 -20.803
9.728 -2.465 -20.757
10.490 -2.381 -20.681
11.548 -2.290 -20.498
12.602 -2.208 -20.261
13.714 -2.125 -20.047
14.843 -2.080 -19.677
15.887 -1.974 -19.525
16.974 -1.893 -19.292
18.109 -1.848 -18.953
19.236 -1.770 -18.655
20.076 -1.781 -18.154
21.066 -1.776 -17.602
21.105 -1.995 -16.617
20.546 -2.371 -15.341
19.965 -2.675 -14.376
19.401 -2.940 -13.531
18.769 -3.219 -12.675
18.356 -3.389 -12.152
17.720 -3.642 -11.386
17.093 -3.879 -10.689
16.405 -4.124 -10.011
15.683 -4.356 -9.371
14.833 -4.590 -8.829
13.965 -4.817 -8.322
13.057 -5.022 -7.885
12.009 -5.229 -7.542
10.982 -5.425 -7.242
10.018 -5.597 -7.031
9.057 -5.752 -6.864
8.073 -5.903 -6.730
7.102 -6.062 -6.570
6.097 -6.200 -6.517
5.082 -6.333 -6.490
4.066 -6.463 -6.477
3.031 -6.579 -6.539
1.978 -6.692 -6.616
0.915 -6.808 -6.725
0.653 -6.829 -6.769
-0.326 -6.920 -6.918
-1.301 -6.992 -7.131
-2.260 -7.054 -7.377
-3.199 -7.106 -7.679
-4.137 -7.133 -8.066
-5.057 -7.162 -8.442
-5.975 -7.168 -8.907
-6.881 -7.170 -9.390
-7.784 -7.149 -9.971
-8.187 -7.143 -10.220
-9.007 -7.112 -10.805
-9.789 -7.065 -11.423
-10.486 -6.984 -12.145
-11.179 -6.907 -12.852
-11.777 -6.796 -13.660
-12.349 -6.672 -14.512
-12.891 -6.539 -15.382
-13.305 -6.397 -16.243
-13.687 -6.223 -17.160
-14.019 -6.056 -18.079
-14.860 -4.801 -23.923
-14.767 -4.546 -24.938
-14.624 -4.284 -26.006
-14.415 -4.013 -27.076
-14.217 -3.793 -27.929
-13.981 -3.554 -28.860
-13.695 -3.309 -29.776
-13.376 -3.059 -30.694
-13.003 -2.803 -31.599
-12.628 -2.553 -32.485
-12.134 -2.285 -33.371
-11.882 -2.135 -33.890
-11.431 -1.861 -34.823
-10.883 -1.594 -35.689
19.867 2.341 -36.083
20.248 2.404 -36.162
21.259 2.543 -36.214
22.323 2.675 -36.166
22.880 2.732 -36.146
23.894 2.844 -36.107
24.872 2.912 -35.918
25.720 2.767 -34.830
26.084 2.614 -33.975
26.441 2.416 -32.914
26.746 2.200 -31.812
26.893 2.093 -31.277
27.054 1.890 -30.307
27.232 1.690 -29.343
27.348 1.478 -28.362
27.377 1.258 -27.389
27.236 1.031 -26.505
25.791 0.636 -25.531
25.273 0.333 -24.553
24.499 0.080 -23.873
23.143 -0.130 -23.718
22.650 -0.205 -23.657
21.660 -0.342 -23.657
20.639 -0.459 -23.728
19.790 -0.449 -24.663
17.835 -0.422 -25.255
18.124 -0.138 -26.322
18.146 0.165 -27.657
17.934 0.499 -29.217
17.897 0.742 -30.285
17.883 0.821 -30.639
17.942 1.130 -31.945
18.146 1.422 -33.096
18.467 1.707 -34.166
18.725 1.971 -35.170
19.345 2.236 -35.914
19.973 -3.167 -18.177
20.680 -3.137 -17.734
20.641 -3.385 -16.651
20.098 -3.785 -15.453
19.726 -3.975 -14.793
19.043 -4.261 -13.958
18.763 -4.385 -13.573
18.177 -4.652 -12.792
17.542 -4.892 -12.040
16.885 -5.136 -11.339
16.188 -5.379 -10.675
15.476 -5.603 -10.021
14.675 -5.838 -9.469
13.822 -6.056 -8.950
12.900 -6.264 -8.496
11.901 -6.477 -8.112
11.045 -6.634 -7.888
10.085 -6.812 -7.660
9.119 -6.969 -7.482
8.143 -7.125 -7.342
7.156 -7.267 -7.228
6.155 -7.410 -7.145
5.158 -7.546 -7.106
4.131 -7.672 -7.112
3.105 -7.799 -7.139
2.034 -7.915 -7.216
0.877 -8.038 -7.335
-0.091 -8.132 -7.497
-1.062 -8.212 -7.706
-2.030 -8.272 -7.965
-2.984 -8.336 -8.227
-3.914 -8.364 -8.601
-4.829 -8.376 -9.038
-5.748 -8.399 -9.467
-6.647 -8.387 -9.986
-7.553 -8.372 -10.532
-7.846 -8.372 -10.704
-8.667 -8.334 -11.292
-9.432 -8.282 -11.935
-10.135 -8.209 -12.632
-10.781 -8.124 -13.375
-11.419 -8.018 -14.155
-14.326 -5.776 -25.262
-14.143 -5.508 -26.365
-13.964 -5.301 -27.200
-13.790 -5.059 -28.144
-13.544 -4.817 -29.079
-13.275 -4.579 -30.004
-12.939 -4.327 -30.927
-12.621 -4.079 -31.833
-12.234 -3.823 -32.738
-11.846 -3.565 -33.638
-11.620 -3.430 -34.111
-11.082 -3.176 -34.908
-10.619 -2.917 -35.790
-9.963 -2.680 -36.451
-8.731 -2.448 -36.784
-8.403 -2.403 -36.795
-7.323 -2.271 -36.795
-6.312 -2.135 -36.834
-5.677 -2.061 -36.834
-4.693 -1.970 -36.692
-3.754 -2.100 -35.613
-3.500 -2.388 -34.237
-3.477 -2.713 -32.809
-3.372 -2.968 -31.658
-3.326 -3.285 -30.256
-3.246 -3.576 -28.951
-3.029 -3.842 -27.677
-2.731 -4.042 -26.652
-2.689 -4.362 -25.242
-2.462 -4.464 -24.682
-1.521 -4.594 -23.579
-0.922 -4.650 -23.041
-0.065 -4.691 -22.481
0.905 -4.598 -22.278
1.884 -4.513 -22.111
2.838 -4.455 -21.854
3.803 -4.393 -21.598
4.780 -4.323 -21.381
5.797 -4.215 -21.296
6.806 -4.114 -21.180
7.823 -4.004 -21.111
8.836 -3.898 -21.020
9.824 -3.803 -20.893
10.817 -3.707 -20.732
11.788 -3.618 -20.564
12.752 -3.569 -20.292
13.981 -3.501 -19.957
15.065 -3.413 -19.743
16.131 -3.328 -19.584
17.243 -3.265 -19.326
17.728 -2.748 -21.204
17.341 -1.628 -26.256
17.906 -1.445 -26.743
17.782 -0.560 -30.646
17.860 -0.446 -31.094
18.005 -0.140 -32.347
18.283 0.136 -33.424
18.595 0.422 -34.510
18.915 0.684 -35.468
19.553 0.895 -36.017
20.479 1.025 -36.079
21.533 1.169 -36.153
22.584 1.325 -36.168
22.983 1.382 -36.182
23.972 1.468 -36.084
24.968 1.562 -35.969
25.867 1.396 -34.779
26.155 1.292 -34.177
26.494 1.096 -33.107
26.807 0.867 -31.952
26.908 0.785 -31.541
27.000 0.584 -30.558
27.172 0.388 -29.601
27.276 0.163 -28.610
27.328 -0.033 -27.713
27.223 -0.270 -26.778
26.653 -0.533 -25.957
25.878 -0.753 -25.482
25.282 -0.976 -24.912
24.585 -1.197 -24.180
23.505 -1.409 -23.925
22.848 -1.522 -23.835
21.864 -1.676 -23.677
20.863 -1.793 -23.783
19.845 -1.861 -24.001
19.307 -1.935 -23.900
18.906 -4.561 -18.679
20.037 -4.536 -18.000
19.926 -4.825 -16.851
19.229 -5.228 -15.451
19.030 -5.344 -15.088
18.454 -5.601 -14.305
17.842 -5.853 -13.551
17.194 -6.124 -12.826
16.563 -6.355 -12.089
15.875 -6.606 -11.424
15.181 -6.831 -10.778
14.364 -7.081 -10.200
13.546 -7.292 -9.662
12.617 -7.505 -9.248
11.979 -7.648 -9.026
11.033 -7.815 -8.674
10.100 -7.960 -8.434
9.140 -8.138 -8.256
8.183 -8.293 -8.077
7.184 -8.462 -7.974
6.206 -8.584 -7.868
5.204 -8.706 -7.852
4.184 -8.852 -7.841
3.141 -8.981 -7.845
2.067 -9.088 -7.987
1.145 -9.182 -8.124
0.161 -9.279 -8.260
-0.800 -9.389 -8.402
-1.786 -9.460 -8.616
-2.720 -9.507 -8.925
-3.637 -9.535 -9.329
-4.563 -9.561 -9.739
-5.603 -9.577 -10.257
-6.382 -9.564 -10.731
-7.278 -9.552 -11.288
-8.166 -9.513 -11.924
-8.914 -9.452 -12.587
-9.631 -9.366 -13.280
-10.284 -9.274 -14.031
-13.251 -6.314 -28.333
-13.013 -6.070 -29.258
-12.804 -5.836 -30.221
-12.473 -5.592 -31.129
-12.064 -5.340 -32.030
-11.758 -5.092 -32.942
-11.312 -4.832 -33.831
-11.175 -4.753 -34.095
-10.720 -4.484 -35.013
-10.238 -4.222 -35.891
-9.569 -3.982 -36.568
-8.279 -3.766 -36.802
-7.096 -3.611 -36.841
-6.047 -3.493 -36.800
-5.603 -3.437 -36.795
-4.550 -3.300 -36.809
-3.561 -3.318 -36.196
-3.083 -3.587 -34.779
-2.816 -3.807 -33.677
-2.644 -4.083 -32.393
-2.430 -4.325 -31.229
-2.291 -4.569 -30.096
-2.186 -4.858 -28.789
-2.033 -5.123 -27.556
-1.565 -5.274 -26.652
-1.572 -5.566 -25.395
-1.407 -5.640 -24.979
-0.621 -5.733 -23.822
0.199 -5.851 -23.290
1.119 -5.851 -22.879
2.082 -5.779 -22.557
3.082 -5.675 -22.459
4.013 -5.638 -22.097
4.985 -5.549 -21.886
5.981 -5.470 -21.732
7.977 -5.282 -21.420
8.975 -5.214 -21.254
9.948 -5.119 -21.123
10.909 -5.063 -20.810
11.897 -4.991 -20.557
13.106 -4.906 -20.324
14.188 -4.825 -20.088
15.282 -4.749 -19.880
15.946 -4.366 -21.124
